# .PCD v0.7 - Point Cloud Data file format
VERSION 0.7
FIELDS x y z intensity
SIZE 4 4 4 4
TYPE F F F F
COUNT 1 1 1 1
WIDTH 1745
HEIGHT 1
VIEWPOINT 0 0 0 1 0 0 0
POINTS 1745
DATA ascii
0 0 0 50
8.3260002 1.4299999 1.623 15
9.0790005 1.573 1.919 13
6.1939998 1.085 0.81 17
6.5869999 1.1619999 0.96600002 18
7.0700002 1.257 1.149 16
7.6230001 1.3660001 1.3609999 16
8.3100004 1.502 1.619 15
9.0559998 1.651 1.913 12
6.184 1.1390001 0.80800003 17
6.5879998 1.222 0.96499997 16
7.0489998 1.317 1.1440001 17
7.6030002 1.432 1.357 16
8.2939997 1.574 1.615 14
9.0450001 1.7309999 1.91 12
6.1750002 1.193 0.80500001 16
6.5640001 1.277 0.95999998 18
7.0320001 1.377 1.141 16
7.599 1.499 1.355 16
0 0 0 50
9.0159998 1.806 1.904 12
6.1599998 1.2460001 0.80199999 16
6.5630002 1.336 0.958 19
7.026 1.439 1.138 16
7.5830002 1.564 1.352 16
8.2679996 1.7180001 1.609 15
9.0030003 1.885 1.9 11
6.1560001 1.301 0.80000001 16
6.5419998 1.391 0.954 19
7.013 1.5 1.135 16
7.573 1.631 1.349 16
8.2629995 1.7920001 1.607 15
8.9910002 1.964 1.897 11
6.1430001 1.354 0.79699999 16
6.5339999 1.448 0.95200002 19
6.9990001 1.5599999 1.132 15
7.5630002 1.697 1.346 19
8.2480001 1.863 1.603 16
0 0 0 50
6.1290002 1.406 0.79400003 21
6.52 1.5039999 0.949 20
6.9860001 1.6210001 1.1289999 18
7.5500002 1.763 1.3430001 17
8.2390003 1.936 1.601 16
8.9610004 2.1199999 1.89 13
6.1199999 1.461 0.792 21
6.507 1.561 0.94599998 20
6.9770002 1.683 1.127 19
7.5409999 1.83 1.341 17
8.2299995 2.01 1.599 15
8.9379997 2.197 1.885 14
6.1090002 1.515 0.78899997 20
6.5120001 1.622 0.94499999 18
6.9699998 1.7460001 1.125 18
7.5250001 1.895 1.337 18
8.2139997 2.0810001 1.595 15
8.9390001 2.279 1.885 14
6.0939999 1.567 0.78600001 20
6.507 1.6799999 0.94400001 18
0 0 0 50
7.5180001 1.962 1.335 15
8.1899996 2.1500001 1.59 16
8.9110003 2.3540001 1.8789999 14
6.0910001 1.622 0.78399998 19
6.487 1.735 0.94 17
6.9450002 1.8660001 1.119 18
7.507 2.0280001 1.3329999 16
8.1780005 2.2219999 1.587 14
8.8990002 2.4319999 1.876 13
6.0780001 1.675 0.78100002 20
6.4749999 1.791 0.93699998 17
6.9390001 1.928 1.117 17
7.4970002 2.0940001 1.33 17
8.1630001 2.2920001 1.584 14
8.8889999 2.5109999 1.874 13
6.0689998 1.728 0.77899998 19
6.473 1.85 0.93599999 18
6.9260001 1.988 1.114 17
7.4840002 2.1589999 1.327 17
8.1540003 2.365 1.582 14
0 0 0 50
6.0630002 1.7819999 0.77700001 19
6.461 1.906 0.93300003 18
6.9120002 2.0480001 1.1109999 17
7.4759998 2.2249999 1.326 16
8.1359997 2.434 1.5779999 14
8.8839998 2.6730001 1.874 15
0 6.1440001 0 0
0 0 0 0
0 0 0 0
0 0 0 255
6.053 1.835 0.77499998 19
6.454 1.9630001 0.93099999 18
6.9060001 2.1099999 1.11 18
7.4640002 2.29 1.323 15
8.1330004 2.5079999 1.5779999 14
8.8929996 2.7579999 1.876 27
6.0339999 1.885 0.77100003 19
6.4450002 2.0209999 0.92900002 18
6.895 2.1700001 1.108 17
7.4590001 2.358 1.322 15
8.1199999 2.5799999 1.576 14
8.8879995 2.839 1.876 40
6.033 1.941 0.77100003 18
6.4289999 2.075 0.926 17
6.8850002 2.23 1.105 17
7.4460001 2.4230001 1.3200001 14
8.1090002 2.651 1.574 14
8.8249998 2.9000001 1.863 40
6.0110002 1.989 0.76700002 18
6.4120002 2.128 0.92299998 17
6.8730001 2.29 1.103 17
7.4439998 2.4909999 1.3200001 14
0 0 0 50
8.7580004 2.9579999 1.85 29
6.0100002 2.0439999 0.76599997 17
6.4070001 2.1860001 0.92199999 17
6.868 2.352 1.102 17
7.4260001 2.553 1.316 14
8.0869999 2.793 1.571 13
8.7639999 3.0420001 1.852 17
6.0029998 2.0969999 0.76499999 18
6.401 2.244 0.921 17
6.875 2.4170001 1.103 17
7.415 2.618 1.3150001 13
8.0819998 2.8659999 1.571 13
0 0 0 50
5.9980001 2.152 0.764 17
6.395 2.3010001 0.92000002 16
6.8629999 2.477 1.102 16
7.415 2.6860001 1.3150001 13
8.0780001 2.9400001 1.571 13
8.8500004 3.2360001 1.873 23
5.993 2.2049999 0.76200002 19
6.3839998 2.355 0.91799998 17
6.862 2.54 1.102 17
7.401 2.75 1.314 13
8.0909996 3.0190001 1.575 15
8.8389997 3.313 1.873 36
5.9850001 2.2579999 0.76099998 19
6.381 2.4130001 0.91799998 16
6.8670001 2.6059999 1.103 15
7.401 2.819 1.3150001 13
8.1140003 3.1029999 1.58 26
8.7919998 3.378 1.865 37
5.973 2.3080001 0.759 17
6.3699999 2.4690001 0.91600001 16
6.8699999 2.6700001 1.104 16
7.3940001 2.8840001 1.314 14
8.0880003 3.1670001 1.577 43
8.7340002 3.4360001 1.855 32
5.967 2.3610001 0.759 21
0 0 0 50
6.849 2.7249999 1.102 17
7.3829999 2.948 1.314 15
8.0450001 3.224 1.571 44
8.7670002 3.53 1.865 18
5.9850001 2.4230001 0.76099998 19
6.3699999 2.585 0.917 18
6.8559999 2.79 1.104 16
7.3769999 3.013 1.314 15
0 0 0 0
8.8190002 3.632 1.878 14
5.961 2.4679999 0.75800002 18
6.3649998 2.642 0.917 18
6.842 2.848 1.102 17
7.3759999 3.0799999 1.3150001 15
8.0080004 3.3570001 1.567 23
8.8260002 3.7160001 1.883 14
5.967 2.526 0.75999999 20
6.362 2.6989999 0.917 18
6.8400002 2.9100001 1.104 15
7.3800001 3.151 1.318 15
8.0579996 3.4530001 1.58 16
8.8249998 3.7969999 1.886 13
5.9629998 2.579 0.75999999 17
6.3639998 2.7579999 0.91900003 18
6.8410001 2.973 1.105 15
7.3730001 3.2149999 1.319 14
8.1090002 3.549 1.5930001 23
8.849 3.8900001 1.895 13
5.9640002 2.6340001 0.76099998 17
6.3579998 2.8150001 0.91900003 16
6.8299999 3.0320001 1.105 15
7.3899999 3.2909999 1.324 16
8.0930004 3.6170001 1.5930001 41
8.8570004 3.9749999 1.901 13
0 6.1440001 0 0
0 0 0 0
0 0 0 0
0 0 0 255
5.9559999 2.6849999 0.76099998 17
6.3629999 2.8740001 0.92199999 17
6.829 3.0929999 1.107 15
0 0 0 50
8.0579996 3.675 1.589 42
8.875 4.0640001 1.909 13
5.9530001 2.7379999 0.76200002 17
6.3629999 2.9330001 0.92299998 17
6.829 3.155 1.109 16
7.4219999 3.4400001 1.336 40
8.0270004 3.734 1.587 31
8.8800001 4.1479998 1.914 13
5.9450002 2.7880001 0.76200002 16
6.3520002 2.9849999 0.92400002 16
6.8299999 3.2179999 1.112 14
7.3769999 3.4860001 1.331 45
8.0430002 3.8139999 1.594 18
8.8909998 4.2340002 1.9220001 12
5.9460001 2.842 0.764 17
6.3530002 3.043 0.926 15
6.8309999 3.28 1.115 14
7.3600001 3.5450001 1.331 37
8.0860004 3.908 1.607 15
8.9189997 4.329 1.934 12
5.954 2.9000001 0.76700002 16
6.3569999 3.102 0.92900002 15
6.8400002 3.346 1.119 14
7.3629999 3.6129999 1.336 23
8.1079998 3.9920001 1.6160001 14
8.9560003 4.428 1.948 12
5.9559999 2.954 0.76899999 17
6.3569999 3.1589999 0.93099999 16
6.8400002 3.4070001 1.123 13
7.4060001 3.7 1.348 15
8.1289997 4.0749998 1.625 14
8.9589996 4.5100002 1.954 12
5.948 3.003 0.76999998 16
6.355 3.2149999 0.93400002 15
6.8429999 3.47 1.126 13
7.4380002 3.7820001 1.358 22
8.1479998 4.158 1.6339999 14
8.9829998 4.6020002 1.966 11
5.9549999 3.059 0.773 17
6.3600001 3.273 0.93800002 15
6.8629999 3.54 1.1339999 17
7.4590001 3.859 1.3660001 34
8.1700001 4.2410002 1.645 14
9.0139999 4.698 1.98 12
5.9520001 3.109 0.77600002 15
6.3740001 3.335 0.94300002 15
6.8759999 3.6059999 1.14 26
7.4489999 3.918 1.369 43
8.1890001 4.322 1.655 14
9.0360003 4.789 1.992 12
5.9549999 3.1619999 0.77899998 16
6.3709998 3.3889999 0.94700003 14
6.8779998 3.6670001 1.145 39
7.4349999 3.9749999 1.372 41
8.2089996 4.4039998 1.665 14
9.0649996 4.882 2.006 11
5.9660001 3.2190001 0.78399998 15
6.381 3.448 0.95200002 16
6.8590002 3.7149999 1.146 47
7.4200001 4.0300002 1.375 24
8.243 4.4920001 1.679 14
9.1040001 4.9809999 2.023 12
5.973 3.2720001 0.78799999 15
6.3930001 3.5079999 0.958 14
6.8600001 3.773 1.151 34
7.4720001 4.1209998 1.39 15
8.2790003 4.5809999 1.693 14
9.1549997 5.086 2.043 13
5.9780002 3.323 0.79299998 17
6.3990002 3.5639999 0.963 17
6.8759999 3.8380001 1.159 22
7.5120001 4.2049999 1.404 17
8.2950001 4.6589999 1.7029999 16
9.1949997 5.1849999 2.0610001 12
5.9910002 3.3789999 0.79799998 16
6.4190001 3.6270001 0.97000003 17
6.9219999 3.9200001 1.1720001 16
7.539 4.2820001 1.416 16
8.3240004 4.744 1.717 16
9.2209997 5.276 2.076 11
5.9959998 3.4300001 0.80299997 16
6.4330001 3.6860001 0.97799999 17
6.947 3.99 1.182 22
0 0 0 50
8.3520002 4.8270001 1.732 15
9.2819996 5.3860002 2.099 13
6.0089998 3.4849999 0.80900002 16
6.4650002 3.7550001 0.98799998 22
6.9650002 4.0549998 1.191 36
7.5900002 4.4310002 1.439 16
8.3859997 4.9130001 1.747 15
9.3100004 5.4759998 2.1159999 11
0 6.1440001 0 0
0 0 0 0
0 0 0 0
0 0 0 255
6.0149999 3.5339999 0.815 16
6.4759998 3.812 0.995 35
6.9720001 4.1129999 1.199 46
7.618 4.506 1.451 16
8.4219999 4.9990001 1.763 15
9.3669996 5.5830002 2.1400001 13
6.026 3.586 0.82099998 17
6.4780002 3.8610001 1.001 45
6.9580002 4.1570001 1.2029999 42
7.6459999 4.5799999 1.465 16
8.4630003 5.0869999 1.781 15
9.4090004 5.6789999 2.1600001 12
6.0370002 3.6370001 0.82800001 15
6.4679999 3.902 1.005 41
6.9749999 4.2179999 1.2130001 28
7.6820002 4.658 1.48 16
8.4980001 5.171 1.798 15
9.4729996 5.789 2.1860001 12
6.0549998 3.6900001 0.83600003 14
6.487 3.96 1.0140001 28
7.0209999 4.2950001 1.228 16
7.7119999 4.7319999 1.494 15
8.5539999 5.2659998 1.8200001 15
9.5369997 5.8959999 2.2119999 11
6.0669999 3.7390001 0.84200001 15
6.507 4.0170002 1.024 18
7.0669999 4.3720002 1.243 14
7.7449999 4.8049998 1.5089999 16
8.5930004 5.3499999 1.837 16
9.5900002 5.9959998 2.237 10
6.0840001 3.79 0.85100001 15
6.5450001 4.0830002 1.036 16
7.0949998 4.4359999 1.256 15
7.7820001 4.8800001 1.525 15
0 0 0 50
9.6630001 6.1069999 2.266 10
6.1090002 3.8440001 0.86000001 16
6.5900002 4.1539998 1.05 21
7.1259999 4.5009999 1.268 14
7.8150001 4.9520001 1.54 15
8.6990004 5.5310001 1.882 16
9.743 6.2210002 2.2969999 11
6.1440001 3.904 0.87099999 22
6.6149998 4.21 1.0599999 29
7.1570001 4.5650001 1.2819999 14
7.849 5.0209999 1.5549999 15
8.7519999 5.619 1.904 16
9.8070002 6.3239999 2.325 11
6.1659999 3.954 0.88 32
6.6240001 4.2550001 1.069 40
7.1820002 4.6240001 1.295 14
7.9089999 5.1069999 1.577 15
8.7919998 5.698 1.923 16
9.8809996 6.4310002 2.355 11
6.165 3.987 0.88599998 42
6.625 4.2919998 1.076 43
7.2249999 4.6919999 1.311 14
7.9460001 5.1750002 1.594 14
8.8500004 5.7859998 1.947 15
9.967 6.5450001 2.3889999 11
6.171 4.0240002 0.89399999 42
6.638 4.336 1.085 31
7.257 4.7509999 1.325 15
0 0 0 50
8.8950005 5.8639998 1.9680001 14
10.048 6.6529999 2.421 10
6.1849999 4.0640001 0.90200001 34
6.6539998 4.3800001 1.096 20
7.289 4.809 1.3380001 14
8.033 5.316 1.63 15
8.9700003 5.9590001 1.9960001 14
10.142 6.7670002 2.4579999 10
6.2030001 4.1040001 0.91100001 24
6.7059999 4.4450002 1.1109999 15
7.3280001 4.869 1.354 15
8.0710001 5.3790002 1.648 15
9.0120001 6.0300002 2.016 14
10.217 6.8670001 2.4890001 10
6.2379999 4.1539998 0.92199999 18
6.7480001 4.5019999 1.126 14
7.3670001 4.927 1.37 14
8.1120005 5.4429998 1.666 15
9.0860004 6.119 2.0439999 12
10.298 6.9679999 2.523 12
6.263 4.1960001 0.93300003 18
6.776 4.5479999 1.138 15
7.3990002 4.9780002 1.3839999 16
8.158 5.506 1.6849999 17
9.1400003 6.1939998 2.0680001 14
10.385 7.0689998 2.5569999 14
6.3049998 4.2470002 0.94599998 18
6.7989998 4.5879998 1.149 15
0 0 0 50
8.1969995 5.5640001 1.7029999 16
9.1859999 6.2589998 2.089 12
10.472 7.1680002 2.592 12
0 6.1440001 0 0
0 0 0 0
0 0 0 0
0 0 0 255
6.336 4.2880001 0.95700002 24
6.8330002 4.6339998 1.1619999 15
7.4790001 5.085 1.416 15
8.2460003 5.6240001 1.722 16
9.2449999 6.3309999 2.1140001 12
10.572 7.2740002 2.6300001 11
6.3569999 4.3210001 0.96600002 34
6.8699999 4.6789999 1.176 15
7.5079999 5.1269999 1.4299999 15
8.2969999 5.684 1.742 17
9.316 6.408 2.141 12
10.651 7.3610001 2.6630001 12
6.3889999 4.3579998 0.97799999 38
6.8979998 4.7150002 1.187 15
7.5479999 5.1729999 1.4450001 15
8.3450003 5.7379999 1.761 16
9.3760004 6.473 2.165 12
10.745 7.454 2.7 12
6.3850002 4.3699999 0.98299998 44
0 0 0 50
7.5819998 5.2129998 1.459 15
8.3859997 5.7849998 1.779 16
9.4239998 6.5279999 2.188 11
10.843 7.5469999 2.7360001 13
6.4000001 4.3909998 0.99199998 43
6.9439998 4.7740002 1.209 15
7.612 5.2470002 1.473 15
8.4189997 5.823 1.794 17
9.4870005 6.5890002 2.2119999 12
10.921 7.6220002 2.7679999 14
6.4169998 4.4109998 1 41
6.9819999 4.8099999 1.222 15
7.6490002 5.283 1.488 14
8.4689999 5.8699999 1.814 16
9.5559998 6.651 2.2379999 13
10.984 7.6820002 2.7950001 16
6.4229999 4.421 1.007 35
7.0100002 4.836 1.234 15
7.6750002 5.3080001 1.499 14
8.5179996 5.9120002 1.8329999 15
9.6260004 6.71 2.263 14
11.071 7.7540002 2.829 15
6.4460001 4.441 1.016 29
7.046 4.8629999 1.245 16
7.7119999 5.3379998 1.513 14
8.5439997 5.9349999 1.845 15
9.6940002 6.763 2.2880001 14
11.132 7.8039999 2.8540001 16
6.4619999 4.4520001 1.024 25
7.0619998 4.875 1.2539999 16
0 0 0 50
8.6029997 5.9780002 1.8660001 15
9.7469997 6.802 2.309 14
11.202 7.8569999 2.882 16
6.4860001 4.467 1.0319999 20
7.0939999 4.8959999 1.265 16
7.776 5.382 1.539 14
8.6190004 5.987 1.876 15
9.7980003 6.835 2.329 14
11.298 7.921 2.9159999 13
6.513 4.4809999 1.041 17
7.1110001 4.9029999 1.273 16
7.7989998 5.3930001 1.549 14
8.6610003 6.0100002 1.891 16
9.842 6.8600001 2.3469999 14
11.357 7.9559999 2.9400001 14
6.5359998 4.4889998 1.049 16
7.1329999 4.9099998 1.2819999 15
7.835 5.4099998 1.5599999 15
8.6960001 6.0250001 1.904 16
9.8929996 6.8850002 2.3659999 13
11.409 7.9809999 2.96 17
6.5570002 4.494 1.056 16
7.1589999 4.9180002 1.29 15
7.8540001 5.4109998 1.569 14
8.7259998 6.0339999 1.916 15
9.934 6.8990002 2.381 14
11.499 8.0270004 2.99 18
6.573 4.493 1.062 15
7.178 4.9180002 1.298 15
7.8759999 5.4120002 1.5779999 14
8.7519999 6.0349998 1.926 14
9.9689999 6.9050002 2.3940001 15
11.517 8.0179996 3.0009999 14
6.5910001 4.4899998 1.068 15
7.2010002 4.9169998 1.3049999 16
7.9000001 5.4099998 1.586 14
8.7840004 6.0380001 1.937 14
10 6.9039998 2.4059999 13
11.577 8.0340004 3.0209999 14
6.5999999 4.4790001 1.072 15
7.2069998 4.902 1.309 15
7.9120002 5.3979998 1.591 15
8.7860003 6.0170002 1.9400001 16
10.025 6.895 2.415 15
11.604 8.0220003 3.0320001 14
0 6.1440001 0 0
0 0 0 0
0 0 0 0
0 0 0 255
6.6090002 4.4650002 1.076 17
7.223 4.8920002 1.314 14
7.934 5.3889999 1.598 14
8.8140001 6.0089998 1.949 14
10.049 6.8800001 2.424 14
11.626 8.0019999 3.0409999 14
6.6209998 4.4510002 1.079 16
7.2309999 4.8720002 1.318 14
7.9439998 5.369 1.602 14
8.8330002 5.9920001 1.955 14
10.069 6.8600001 2.4300001 12
11.634 7.967 3.0439999 13
6.6160002 4.4229999 1.08 16
7.2379999 4.8499999 1.3200001 15
7.9520001 5.3439999 1.604 14
8.8500004 5.9699998 1.96 14
10.083 6.8309999 2.4349999 14
11.663 7.9429998 3.053 15
6.6209998 4.3990002 1.082 20
7.256 4.8319998 1.324 14
7.961 5.3169999 1.607 14
8.8409996 5.927 1.9579999 13
10.094 6.7969999 2.437 14
11.639 7.8769999 3.0469999 17
6.6290002 4.375 1.084 23
7.257 4.8010001 1.325 15
7.9689999 5.2880001 1.609 14
8.8610001 5.901 1.962 15
10.088 6.7480001 2.4349999 14
11.635 7.822 3.0439999 15
6.6339998 4.3470001 1.084 27
7.2600002 4.7680001 1.325 15
7.9749999 5.2540002 1.609 14
8.8579998 5.8559999 1.961 15
10.09 6.6999998 2.434 12
11.633 7.7649999 3.0409999 16
6.645 4.3210001 1.086 35
7.256 4.7290001 1.323 15
7.967 5.2080002 1.6059999 14
8.8459997 5.8039999 1.956 16
10.074 6.638 2.427 14
11.603 7.6849999 3.03 15
6.658 4.2940001 1.087 39
7.2529998 4.6890001 1.321 15
7.9650002 5.164 1.604 14
8.8500004 5.7589998 1.955 16
10.068 6.5799999 2.4219999 14
11.579 7.605 3.0190001 15
6.6719999 4.2659998 1.0880001 39
7.2470002 4.6440001 1.318 14
7.9549999 5.112 1.6 14
8.8360004 5.6989999 1.948 16
10.042 6.5040002 2.4119999 13
11.539 7.5110002 3.0039999 15
6.6820002 4.2319999 1.0880001 38
7.2509999 4.6040001 1.317 15
7.9359999 5.053 1.592 16
8.8249998 5.6389999 1.942 17
10.013 6.4260001 2.401 13
11.493 7.4130001 2.9860001 14
6.6880002 4.1950002 1.086 32
7.2319999 4.5469999 1.3099999 15
7.934 5.0029998 1.589 15
8.8210001 5.5819998 1.937 16
9.9840002 6.3439999 2.388 12
11.459 7.3169999 2.9690001 12
6.6830001 4.1490002 1.0829999 25
7.224 4.4949999 1.306 14
7.9190001 4.9419999 1.582 16
8.7889996 5.5040002 1.925 18
9.9549999 6.2610002 2.375 13
11.425 7.2199998 2.9519999 15
6.6690001 4.0970001 1.0779999 19
0 0 0 50
7.908 4.8829999 1.575 15
8.7679996 5.4320002 1.914 16
9.9209995 6.1729999 2.359 13
11.363 7.1040001 2.928 13
6.6409998 4.0349998 1.069 14
7.1950002 4.381 1.293 15
7.8969998 4.822 1.567 16
8.7530003 5.3629999 1.905 16
9.8859997 6.0819998 2.3440001 13
11.286 6.9770002 2.898 15
6.6069999 3.9679999 1.0599999 21
7.1799998 4.322 1.285 15
7.8720002 4.7519999 1.557 16
8.7119999 5.276 1.8890001 16
9.8299999 5.9780002 2.322 12
11.227 6.8590002 2.8729999 14
6.5939999 3.9130001 1.054 32
7.1550002 4.2550001 1.276 17
7.8530002 4.6830001 1.5470001 15
8.6899996 5.1989999 1.877 15
9.7989998 5.8860002 2.306 12
11.144 6.7249999 2.8410001 14
0 6.1440001 0 0
0 0 0 0
0 0 0 0
0 0 0 255
6.5890002 3.862 1.049 41
7.1170001 4.1789999 1.2640001 28
7.8309999 4.6110001 1.5369999 16
8.6490002 5.1090002 1.8609999 17
9.7449999 5.7800002 2.2839999 12
11.045 6.5809999 2.8039999 12
6.5929999 3.8139999 1.044 45
7.098 4.1149998 1.255 40
7.802 4.5349998 1.524 16
8.6260004 5.0300002 1.848 16
9.6940002 5.6739998 2.2620001 12
11.007 6.4720001 2.7820001 14
6.6199999 3.779 1.043 36
7.1129999 4.0679998 1.251 44
7.7719998 4.4559999 1.511 14
8.5810003 4.9359999 1.829 14
9.6339998 5.5619998 2.237 13
10.925 6.335 2.7490001 12
6.5900002 3.71 1.033 19
7.0879998 3.9979999 1.24 32
7.744 4.3790002 1.498 14
8.5469999 4.848 1.814 14
9.5819998 5.4549999 2.2149999 14
10.835 6.1950002 2.7130001 12
6.5539999 3.638 1.022 14
7.1069999 3.9519999 1.237 22
7.7069998 4.296 1.483 14
8.5 4.7519999 1.794 15
9.5240002 5.3439999 2.1900001 14
10.755 6.0609999 2.6789999 12
6.5240002 3.5680001 1.011 13
7.0489998 3.8629999 1.22 15
7.671 4.2129998 1.4680001 14
8.467 4.664 1.777 15
9.46 5.2290001 2.164 15
10.67 5.9229999 2.6440001 11
6.5050001 3.5050001 1.002 14
6.9910002 3.773 1.2029999 24
7.6360002 4.1300001 1.4529999 14
8.4189997 4.5669999 1.758 15
9.4119997 5.1240001 2.141 14
10.605 5.7950001 2.6140001 11
6.4889998 3.4419999 0.99299997 14
6.9749999 3.7060001 1.193 37
7.572 4.0320001 1.432 18
8.3780003 4.474 1.739 15
9.3450003 5.007 2.1140001 15
10.513 5.6550002 2.5769999 11
6.4699998 3.378 0.98400003 14
6.9889998 3.655 1.187 38
7.5240002 3.9419999 1.414 39
8.309 4.3660002 1.714 15
9.2799997 4.8920002 2.0869999 16
10.436 5.5229998 2.543 12
6.4530001 3.3139999 0.97500002 15
6.9780002 3.5899999 1.178 32
7.5409999 3.888 1.409 47
8.2639999 4.2719998 1.6950001 15
9.2180004 4.7800002 2.0599999 16
10.345 5.3839998 2.506 11
6.4250002 3.2460001 0.963 14
6.9429998 3.5120001 1.164 19
7.5469999 3.826 1.401 34
0 0 0 50
9.1590004 4.6680002 2.0339999 16
10.257 5.2470002 2.47 14
6.4109998 3.1830001 0.954 14
6.8979998 3.4300001 1.149 15
7.4990001 3.7360001 1.383 19
8.1730003 4.0819998 1.654 16
9.1009998 4.5580001 2.0090001 16
10.184 5.1199999 2.437 14
6.388 3.1170001 0.94400001 14
6.8709998 3.358 1.136 14
7.415 3.6300001 1.358 21
8.1269999 3.9879999 1.6339999 15
9.0349998 4.4460001 1.982 17
10.089 4.9809999 2.3989999 14
6.3699999 3.053 0.93400002 14
6.848 3.286 1.124 14
7.3730001 3.5439999 1.341 42
8.0600004 3.8829999 1.61 17
8.9689999 4.3330002 1.955 16
10.006 4.8499999 2.3640001 14
6.3520002 2.99 0.92400002 14
6.823 3.2149999 1.112 14
7.382 3.483 1.3329999 50
7.9790001 3.773 1.5829999 33
8.9139996 4.2259998 1.929 17
9.9099998 4.7140002 2.3269999 15
6.335 2.9260001 0.91500002 15
6.796 3.142 1.099 15
7.3790002 3.4159999 1.323 29
7.9759998 3.7 1.571 45
8.8430004 4.1129999 1.901 16
9.8319998 4.5869999 2.293 15
0 6.1440001 0 0
0 0 0 0
0 0 0 0
0 0 0 255
6.309 2.858 0.90399998 15
6.7729998 3.0710001 1.087 15
7.3169999 3.323 1.302 16
7.9790001 3.6300001 1.561 31
8.783 4.006 1.876 17
9.743 4.4559999 2.257 15
6.2800002 2.789 0.89200002 15
6.7420001 2.997 1.074 14
7.2709999 3.2360001 1.284 15
7.9159999 3.53 1.538 18
8.7180004 3.8959999 1.849 16
9.658 4.329 2.2219999 16
6.2509999 2.721 0.88099998 15
6.7119999 2.924 1.0599999 15
7.2389998 3.1570001 1.2690001 15
7.8000002 3.408 1.505 29
8.658 3.7909999 1.824 16
9.5780001 4.2049999 2.1889999 16
6.2309999 2.6570001 0.87 15
6.6880002 2.8540001 1.048 17
7.21 3.0799999 1.255 16
7.7950001 3.335 1.493 50
8.566 3.6730001 1.791 20
9.5150003 4.0900002 2.1600001 16
6.2069998 2.592 0.86000001 16
6.6680002 2.786 1.0369999 17
7.1789999 3.0020001 1.24 15
7.8150001 3.273 1.4859999 37
8.4770002 3.5569999 1.761 32
9.4300003 3.967 2.1270001 14
6.1789999 2.526 0.84899998 13
6.6399999 2.7160001 1.025 15
7.1459999 2.925 1.225 14
7.7610002 3.181 1.465 20
8.4899998 3.4849999 1.751 44
9.3509998 3.848 2.0940001 14
6.1589999 2.4630001 0.83899999 13
6.5999999 2.6400001 1.01 15
7.1170001 2.849 1.211 13
7.6989999 3.085 1.443 14
8.4919996 3.408 1.739 28
9.2779999 3.7320001 2.0639999 15
6.1389999 2.401 0.829 14
6.5710001 2.5699999 0.99800003 15
7.0869999 2.773 1.196 14
7.6599998 3 1.425 14
8.3579998 3.2780001 1.7 18
9.1949997 3.6129999 2.0309999 15
6.112 2.336 0.81800002 14
6.5440001 2.5 0.986 16
7.0599999 2.698 1.183 14
7.6209998 2.9159999 1.4069999 14
8.2770004 3.171 1.6720001 39
9.1309996 3.5039999 2.0039999 16
6.1090002 2.28 0.81099999 15
6.5100002 2.4300001 0.97299999 16
7.0250001 2.622 1.168 16
7.579 2.8310001 1.39 15
8.2849998 3.099 1.6619999 44
8.9960003 3.3699999 1.961 30
6.066 2.211 0.79900002 16
6.4879999 2.3629999 0.96200001 16
6.9889998 2.546 1.154 15
7.5419998 2.75 1.373 15
8.2980003 3.029 1.653 30
8.9899998 3.286 1.947 45
6.0440001 2.1500001 0.78899997 16
6.4640002 2.2980001 0.95099998 16
6.948 2.47 1.138 16
7.5139999 2.6719999 1.358 15
8.1969995 2.9170001 1.622 16
8.9910002 3.204 1.934 34
6.0359998 2.0929999 0.78100002 14
6.4380002 2.2309999 0.94 16
6.9089999 2.3940001 1.124 17
7.48 2.5929999 1.3430001 15
8.1459999 2.825 1.601 15
8.875 3.082 1.897 18
6.0079999 2.0309999 0.77100003 15
6.4089999 2.165 0.92799997 16
6.881 2.323 1.1109999 17
7.4400001 2.5120001 1.326 15
8.0979996 2.7349999 1.581 15
8.7639999 2.9630001 1.8609999 34
5.9809999 1.969 0.76200002 16
6.3860002 2.0999999 0.91799998 16
6.8509998 2.2509999 1.098 17
7.4130001 2.4360001 1.312 17
8.0620003 2.6500001 1.563 16
8.7959995 2.8940001 1.8559999 47
5.9710002 1.913 0.75400001 17
6.3699999 2.0380001 0.90899998 16
6.8169999 2.1800001 1.085 16
7.3759999 2.3570001 1.2970001 16
8.0200005 2.5639999 1.545 15
8.7790003 2.8080001 1.841 31
0 6.1440001 0 0
0 0 0 0
0 0 0 0
0 0 0 255
5.9520001 1.854 0.74599999 17
6.3449998 1.974 0.898 16
6.7919998 2.112 1.074 17
7.349 2.2839999 1.284 17
7.9889998 2.4820001 1.53 15
8.6879997 2.7 1.811 15
5.941 1.799 0.73799998 17
6.3179998 1.91 0.88800001 15
6.763 2.043 1.062 18
7.316 2.2079999 1.27 18
7.947 2.398 1.512 17
8.6520004 2.6110001 1.793 15
5.9200001 1.7410001 0.73000002 17
6.303 1.85 0.88 16
6.7399998 1.976 1.051 18
7.283 2.1329999 1.256 17
7.915 2.3180001 1.497 16
8.6000004 2.5179999 1.771 16
5.902 1.6849999 0.722 17
6.25 1.78 0.866 17
6.7220001 1.9119999 1.041 18
7.2540002 2.0610001 1.243 18
7.8979998 2.243 1.485 19
8.5469999 2.4260001 1.75 16
5.8889999 1.63 0.71600002 18
6.2540002 1.727 0.861 18
6.6989999 1.847 1.031 18
7.2319999 1.99 1.232 18
7.855 2.1600001 1.4680001 18
8.507 2.3380001 1.733 16
5.8730001 1.574 0.708 19
6.2290001 1.666 0.852 17
6.6729999 1.781 1.021 17
7.1999998 1.919 1.219 18
7.8260002 2.0829999 1.455 19
8.4750004 2.2539999 1.717 16
5.8530002 1.518 0.70099998 17
6.2189999 1.609 0.84500003 18
6.658 1.719 1.012 18
7.1690001 1.848 1.207 19
7.7909999 2.0050001 1.4400001 16
8.4350004 2.168 1.7 12
5.8449998 1.466 0.69499999 15
6.2090001 1.553 0.838 16
6.6399999 1.6569999 1.0039999 15
7.1389999 1.777 1.1950001 16
7.777 1.933 1.4299999 16
8.3990002 2.085 1.684 14
5.8260002 1.411 0.68900001 15
6.1859999 1.494 0.82999998 16
6.6199999 1.594 0.995 15
7.112 1.7079999 1.184 16
7.7329998 1.854 1.415 16
8.3830004 2.006 1.6720001 16
5.8109999 1.358 0.68199998 14
6.1739998 1.437 0.82300001 16
6.6079998 1.534 0.98799998 15
7.0910001 1.641 1.175 16
7.717 1.7819999 1.405 18
8.3430004 1.9220001 1.6569999 16
5.8060002 1.307 0.67799997 15
6.1609998 1.382 0.81699997 16
6.5669999 1.4680001 0.97600001 16
7.0640001 1.574 1.165 16
7.684 1.707 1.392 17
8.3179998 1.844 1.6440001 15
5.7880001 1.2539999 0.67199999 16
6.1500001 1.327 0.81099999 16
6.5440001 1.406 0.96799999 17
7.0539999 1.511 1.1569999 17
7.6539998 1.6339999 1.381 17
8.2880001 1.765 1.631 16
5.7919998 1.206 0.66799998 15
6.1360002 1.272 0.80500001 16
6.5349998 1.349 0.96200001 18
7.0310001 1.446 1.149 16
7.632 1.564 1.3710001 16
8.2580004 1.687 1.619 16
5.7820001 1.155 0.66399997 14
0 0 0 50
6.5250001 1.2920001 0.95599997 17
7.0110002 1.381 1.141 16
7.6100001 1.493 1.3609999 16
8.2329998 1.61 1.608 17
5.7690001 1.104 0.65899998 17
6.1110001 1.163 0.79500002 16
6.507 1.232 0.94999999 17
6.9970002 1.319 1.1339999 17
7.5900002 1.425 1.353 17
8.2159996 1.536 1.599 18
5.7509999 1.052 0.65399998 16
6.1149998 1.112 0.792 16
6.507 1.177 0.94599998 17
6.9879999 1.258 1.128 17
7.5869999 1.358 1.347 17
8.1999998 1.462 1.59 15
0 6.1440001 0 0
0 0 0 0
0 0 0 0
0 0 0 255
5.7519999 1.0039999 0.65100002 16
6.105 1.059 0.787 16
0 0 0 50
6.9790001 1.197 1.123 17
7.5640001 1.29 1.339 17
8.1700001 1.386 1.579 16
5.7459998 0.95499998 0.648 17
6.105 1.008 0.78399998 16
6.487 1.064 0.93599999 17
6.9679999 1.135 1.117 17
7.5580001 1.224 1.334 15
8.1549997 1.313 1.572 16
5.7459998 0.90700001 0.64499998 16
6.0949998 0.95499998 0.77999997 16
6.4790001 1.008 0.93199998 16
6.9520001 1.074 1.1109999 16
7.546 1.158 1.3279999 17
8.1560001 1.243 1.567 17
5.7379999 0.85799998 0.64200002 15
6.0869999 0.903 0.77700001 16
0 0 0 50
6.948 1.015 1.108 17
7.526 1.091 1.321 17
8.132 1.171 1.559 17
5.7319999 0.81099999 0.639 15
6.085 0.85299999 0.77399999 16
6.4749999 0.89899999 0.926 17
6.941 0.95599997 1.104 16
7.5279999 1.028 1.318 18
8.1169996 1.1 1.553 16
5.7270002 0.76300001 0.63700002 17
6.0799999 0.80199999 0.77200001 16
6.4699998 0.84500003 0.92400002 17
6.9369998 0.89700001 1.101 17
7.527 0.96499997 1.3150001 17
8.1079998 1.03 1.548 17
5.7340002 0.71600002 0.63599998 17
6.085 0.75199997 0.77100003 16
6.4689999 0.79100001 0.92199999 15
6.9419999 0.83999997 1.099 17
7.526 0.90200001 1.313 17
8.1009998 0.96100003 1.544 16
5.7309999 0.66900003 0.63499999 16
0 0 0 50
6.4770002 0.73900002 0.921 17
6.9429998 0.78299999 1.098 17
7.5029998 0.83600003 1.306 17
8.1079998 0.89399999 1.543 17
5.7290001 0.62199998 0.63300002 17
6.0780001 0.65100002 0.76700002 16
6.4689999 0.685 0.91799998 17
6.9390001 0.72500002 1.096 16
7.5120001 0.77499998 1.306 17
8.0930004 0.82499999 1.538 17
5.7329998 0.57599998 0.63300002 16
6.0869999 0.60299999 0.76700002 16
6.473 0.63200003 0.91799998 17
6.9460001 0.66900003 1.095 15
7.5100002 0.713 1.3049999 17
8.1040001 0.75800002 1.539 18
5.723 0.52899998 0.63099998 16
0 0 0 50
6.474 0.579 0.917 18
6.9419999 0.611 1.094 16
7.5180001 0.65200001 1.3049999 17
8.1070004 0.69099998 1.538 16
5.7389998 0.484 0.63300002 15
6.0900002 0.505 0.76599997 16
6.474 0.52600002 0.917 17
6.9489999 0.55500001 1.094 16
7.526 0.58999997 1.306 17
8.1129999 0.62400001 1.539 17
5.744 0.43799999 0.63300002 16
6.092 0.45500001 0.76599997 16
6.4749999 0.47400001 0.91600001 17
6.9510002 0.498 1.094 16
7.526 0.528 1.3049999 16
8.1090002 0.55699998 1.538 17
5.7449999 0.39199999 0.63300002 15
0 0 0 50
6.4889998 0.42300001 0.91900003 17
6.9549999 0.442 1.095 16
7.5370002 0.46700001 1.307 16
8.1219997 0.491 1.54 17
5.7509999 0.34599999 0.634 15
6.105 0.35800001 0.76800001 16
6.4920001 0.37 0.91900003 17
6.961 0.38600001 1.096 16
7.5409999 0.40599999 1.308 17
8.1300001 0.42500001 1.5420001 17
5.7550001 0.301 0.63499999 15
6.1149998 0.31 0.76999998 16
6.4990001 0.31900001 0.921 17
6.9699998 0.331 1.098 15
7.5570002 0.34599999 1.312 17
8.1429996 0.359 1.545 15
0 6.1440001 0 0
0 0 0 0
0 0 0 0
0 0 0 255
5.7719998 0.257 0.63700002 15
0 0 0 50
6.5029998 0.26699999 0.92199999 16
6.9780002 0.27500001 1.1 16
7.5599999 0.285 1.313 17
8.1569996 0.29300001 1.549 17
5.7740002 0.211 0.63800001 13
6.1279998 0.213 0.773 16
6.513 0.215 0.92400002 15
6.994 0.219 1.104 16
7.5669999 0.22400001 1.316 16
8.1829996 0.228 1.5549999 17
5.7800002 0.16599999 0.63999999 15
6.1350002 0.16500001 0.77499998 15
6.5500002 0.16500001 0.93099999 14
7.0029998 0.163 1.107 16
7.5929999 0.163 1.322 17
8.2040005 0.162 1.561 17
0 0 0 50
6.1490002 0.117 0.778 15
6.5289998 0.112 0.92900002 16
7.0229998 0.108 1.1109999 15
7.5949998 0.103 1.324 15
8.2229996 0.096000001 1.567 16
5.8039999 0.075000003 0.64499998 15
6.1620002 0.068000004 0.78100002 15
6.5469999 0.059999999 0.93400002 15
7.0310001 0.052000001 1.115 16
7.6059999 0.041999999 1.3279999 16
8.2419996 0.029999999 1.573 16
5.8140001 0.029999999 0.648 15
6.1680002 0.02 0.78399998 14
6.5819998 0.0089999996 0.94 14
7.0500002 -0.003 1.12 16
7.632 -0.017999999 1.335 16
8.2729998 -0.035999998 1.582 15
5.829 -0.015 0.65100002 14
6.1849999 -0.028000001 0.78799999 15
6.6009998 -0.041999999 0.94499999 14
7.0619998 -0.059 1.124 15
7.6570001 -0.079000004 1.342 16
8.2910004 -0.102 1.5880001 16
5.8400002 -0.059999999 0.65399998 14
0 0 0 50
6.6149998 -0.093999997 0.94999999 14
7.0760002 -0.115 1.1289999 15
7.6750002 -0.14 1.349 16
8.3179998 -0.168 1.597 15
5.8520002 -0.106 0.65799999 14
6.217 -0.125 0.79699999 15
6.6350002 -0.146 0.95499998 15
7.105 -0.171 1.137 15
7.7059999 -0.20100001 1.357 15
8.3450003 -0.236 1.6059999 15
5.8649998 -0.15099999 0.662 13
6.224 -0.17299999 0.80000001 15
6.6529999 -0.199 0.96100003 14
7.1279998 -0.227 1.1440001 16
7.73 -0.26300001 1.365 16
0 0 0 50
5.8559999 -0.19599999 0.66299999 24
0 0 0 0
6.6680002 -0.25099999 0.96600002 14
7.1490002 -0.28400001 1.15 16
7.7589998 -0.32499999 1.374 16
8.4099998 -0.37099999 1.627 15
5.8870001 -0.243 0.66900003 33
6.2670002 -0.271 0.81099999 15
6.6869998 -0.30399999 0.972 14
7.1739998 -0.34099999 1.158 17
7.7810001 -0.38699999 1.382 18
8.4379997 -0.43799999 1.637 17
5.8959999 -0.28799999 0.67299998 33
6.2680001 -0.31900001 0.815 15
6.7119999 -0.35600001 0.97899997 15
7.1989999 -0.398 1.166 16
7.8169999 -0.44999999 1.393 17
8.4860001 -0.50700003 1.652 17
5.9250002 -0.33399999 0.68000001 34
6.2839999 -0.368 0.81999999 22
6.7309999 -0.40900001 0.986 15
0 0 0 50
7.848 -0.51200002 1.403 17
8.5229998 -0.57599998 1.664 16
5.9450002 -0.38100001 0.685 26
6.3060002 -0.417 0.82599998 36
6.7550001 -0.46200001 0.99299997 15
7.2470002 -0.51200002 1.182 16
7.888 -0.57599998 1.416 18
8.5559998 -0.64499998 1.676 16
5.9720001 -0.428 0.69199997 15
6.3210001 -0.46599999 0.83200002 36
6.7849998 -0.51599997 1.001 15
7.2839999 -0.57099998 1.193 16
7.9250002 -0.639 1.427 17
8.6110001 -0.71499997 1.692 17
0 6.1440001 0 0
0 0 0 0
0 0 0 0
0 0 0 255
5.9850001 -0.47299999 0.69599998 14
6.3449998 -0.51599997 0.83899999 36
6.7709999 -0.56599998 1.0039999 19
7.3130002 -0.62900001 1.202 16
7.9499998 -0.70200002 1.437 17
0 0 0 50
5.9990001 -0.51899999 0.70099998 14
6.3959999 -0.56800002 0.84899998 23
6.8179998 -0.62099999 1.015 17
7.3400002 -0.68599999 1.212 16
7.9920001 -0.76700002 1.45 17
8.7089996 -0.85699999 1.724 16
6.0229998 -0.56599998 0.708 15
6.4200001 -0.61799997 0.85699999 15
6.848 -0.676 1.024 15
7.375 -0.745 1.223 16
8.0290003 -0.83099997 1.4630001 18
8.7360001 -0.926 1.7359999 15
6.0469999 -0.61299998 0.71399999 15
6.4159999 -0.66600001 0.86000001 16
6.8769999 -0.73000002 1.033 15
7.4130001 -0.80500001 1.234 15
8.0640001 -0.89600003 1.475 17
8.8030005 -1 1.756 13
6.0650001 -0.66000003 0.72100002 15
6.4569998 -0.71799999 0.87 14
6.9050002 -0.78399998 1.0420001 15
0 0 0 50
8.1120005 -0.96200001 1.49 16
8.8520002 -1.073 1.773 13
6.0819998 -0.70599997 0.727 15
6.4720001 -0.76700002 0.87699997 14
6.9349999 -0.83899999 1.051 14
7.4840002 -0.92400002 1.257 15
8.1540003 -1.028 1.5039999 15
8.8979998 -1.146 1.789 14
6.1020002 -0.75300002 0.73299998 14
6.4980001 -0.81800002 0.88499999 13
6.9660001 -0.89399999 1.061 14
7.5159998 -0.98400003 1.268 15
8.1990004 -1.094 1.5190001 15
8.9519997 -1.219 1.807 13
0 0 0 50
6.5250001 -0.86799997 0.89300001 14
6.9920001 -0.94800001 1.0700001 15
7.552 -1.044 1.28 15
8.2419996 -1.161 1.533 13
9.0030003 -1.293 1.825 13
6.1539998 -0.84899998 0.74800003 15
6.5640001 -0.92199999 0.903 14
7.02 -1.003 1.08 14
7.585 -1.103 1.291 15
8.2799997 -1.227 1.5470001 14
9.066 -1.369 1.846 14
6.1630001 -0.89399999 0.75300002 14
6.5830002 -0.972 0.91000003 14
7.053 -1.059 1.09 14
0 0 0 50
8.3430004 -1.2970001 1.5650001 15
9.1169996 -1.443 1.864 13
6.2020001 -0.94400001 0.76200002 14
6.6040001 -1.022 0.91799998 13
7.085 -1.114 1.1 15
7.6570001 -1.225 1.3150001 14
8.3929996 -1.3660001 1.581 18
9.1639996 -1.518 1.881 13
6.223 -0.991 0.76899999 12
6.6399999 -1.074 0.92799997 13
7.1199999 -1.17 1.1109999 15
7.6960001 -1.286 1.3279999 13
8.4429998 -1.434 1.598 20
9.1879997 -1.587 1.8940001 17
6.2459998 -1.038 0.77600002 12
6.671 -1.126 0.93699998 14
0 0 0 50
7.7259998 -1.345 1.339 15
8.4680004 -1.498 1.609 14
9.257 -1.665 1.916 27
6.2659998 -1.085 0.78299999 17
6.6890001 -1.175 0.94400001 15
7.1960001 -1.284 1.1339999 15
7.7690001 -1.4069999 1.353 16
8.5109997 -1.566 1.624 16
9.3170004 -1.742 1.936 29
6.2870002 -1.132 0.79000002 14
6.7210002 -1.228 0.95300001 15
7.223 -1.339 1.143 14
7.816 -1.47 1.367 14
8.5710001 -1.637 1.643 14
0 0 0 50
6.303 -1.178 0.796 14
6.7470002 -1.279 0.96200001 14
7.2620001 -1.396 1.154 14
7.8530002 -1.531 1.3789999 14
8.6169996 -1.705 1.658 13
9.4779997 -1.905 1.9859999 15
0 6.1440001 0 0
0 0 0 0
0 0 0 0
0 0 0 255
6.3330002 -1.226 0.80400002 14
6.7649999 -1.327 0.96899998 14
7.2859998 -1.45 1.164 15
7.8959999 -1.5930001 1.392 14
8.6660004 -1.774 1.675 14
9.5129995 -1.977 2.0009999 14
6.3429999 -1.271 0.81 14
6.7950001 -1.3789999 0.97799999 15
7.3049998 -1.503 1.1720001 12
7.9299998 -1.654 1.404 14
8.7150002 -1.844 1.691 13
9.5699997 -2.0539999 2.02 13
6.3839998 -1.321 0.81900001 15
6.8119998 -1.428 0.98500001 15
7.3319998 -1.557 1.181 14
7.9590001 -1.714 1.416 14
8.7609997 -1.9119999 1.706 14
9.6359997 -2.1329999 2.0420001 13
6.402 -1.367 0.82499999 15
6.8439999 -1.48 0.99400002 15
7.3600001 -1.612 1.191 14
7.994 -1.774 1.427 13
8.8100004 -1.982 1.722 14
0 0 0 50
6.4239998 -1.414 0.83200002 15
6.8639998 -1.529 1.001 15
7.3850002 -1.665 1.2 12
8.0229998 -1.8329999 1.438 13
8.8599997 -2.0510001 1.739 15
9.7629995 -2.29 2.0829999 13
6.4530001 -1.461 0.83999997 15
6.8899999 -1.579 1.0089999 15
7.4169998 -1.72 1.21 13
8.0469999 -1.89 1.448 14
8.901 -2.1170001 1.753 13
9.8190002 -2.368 2.1029999 13
6.4640002 -1.505 0.84500003 15
6.9099998 -1.627 1.016 14
7.4549999 -1.776 1.221 14
8.0880003 -1.951 1.46 14
8.9390001 -2.184 1.766 14
9.8760004 -2.444 2.122 13
6.487 -1.551 0.85100001 15
6.9369998 -1.677 1.024 15
7.4759998 -1.8279999 1.228 14
8.1239996 -2.01 1.472 14
8.9689999 -2.247 1.778 13
9.9289999 -2.5190001 2.1389999 14
6.5089998 -1.596 0.85699999 16
6.9520001 -1.723 1.03 17
7.5009999 -1.88 1.237 13
8.1490002 -2.066 1.4809999 14
9.0089998 -2.312 1.7920001 13
9.9770002 -2.5929999 2.1559999 13
6.5219998 -1.638 0.86199999 14
6.974 -1.77 1.0369999 16
0 0 0 50
8.1879997 -2.1259999 1.493 14
9.0579996 -2.3789999 1.806 13
10.012 -2.6630001 2.1700001 12
6.539 -1.681 0.86699998 15
6.9949999 -1.817 1.043 16
7.552 -1.983 1.253 13
8.2209997 -2.1830001 1.503 16
9.0860004 -2.4400001 1.816 12
10.059 -2.734 2.1860001 13
6.5500002 -1.722 0.87199998 15
7.0159998 -1.863 1.05 15
7.572 -2.0320001 1.26 13
8.2390003 -2.2360001 1.51 14
9.1300001 -2.506 1.83 12
10.102 -2.8050001 2.2 13
6.579 -1.767 0.87800002 16
7.0349998 -1.908 1.0549999 16
7.5999999 -2.0829999 1.267 13
8.2709999 -2.2909999 1.52 15
9.1630001 -2.5669999 1.841 13
10.154 -2.8770001 2.217 12
6.5819998 -1.8049999 0.88099998 15
7.0489998 -1.951 1.0599999 16
7.6160002 -2.1300001 1.273 13
8.3059998 -2.3469999 1.529 14
9.2049999 -2.6300001 1.853 14
10.183 -2.9430001 2.227 13
6.598 -1.845 0.88499999 16
7.0640001 -1.994 1.0650001 16
7.6370001 -2.177 1.279 14
8.3240004 -2.398 1.536 14
9.2370005 -2.6900001 1.863 13
10.229 -3.0120001 2.2420001 13
6.6139998 -1.885 0.889 15
7.0869999 -2.039 1.0700001 14
7.658 -2.224 1.285 14
8.3479996 -2.4489999 1.543 14
9.2609997 -2.7460001 1.8710001 14
10.253 -3.073 2.25 13
0 6.1440001 0 0
0 0 0 0
0 0 0 0
0 0 0 255
6.6240001 -1.923 0.89099997 17
7.092 -2.0769999 1.072 16
7.671 -2.2679999 1.289 14
8.3629999 -2.497 1.548 15
9.2740002 -2.7980001 1.876 14
10.297 -3.1389999 2.263 13
0 0 0 50
7.1139998 -2.1199999 1.077 16
7.6859999 -2.3110001 1.293 14
8.3889999 -2.5469999 1.554 15
9.2950001 -2.8499999 1.882 15
10.32 -3.197 2.2709999 12
6.6389999 -1.993 0.89499998 15
7.125 -2.158 1.08 17
7.697 -2.352 1.296 13
8.4099998 -2.5940001 1.559 14
9.3179998 -2.902 1.888 14
10.335 -3.2520001 2.276 11
6.6329999 -2.023 0.89499998 15
7.1339998 -2.1949999 1.082 16
7.7140002 -2.3929999 1.299 14
8.4250002 -2.638 1.563 14
9.323 -2.947 1.891 12
10.359 -3.3080001 2.2820001 11
6.6459999 -2.0580001 0.89700001 15
7.1350002 -2.227 1.082 15
7.711 -2.428 1.3 16
8.4300003 -2.677 1.564 15
9.3400002 -2.994 1.8940001 14
10.366 -3.3559999 2.2839999 10
6.6490002 -2.089 0.898 15
7.1399999 -2.2609999 1.082 14
7.73 -2.4679999 1.302 15
8.4379997 -2.717 1.566 14
9.3380003 -3.0339999 1.8940001 13
10.373 -3.4030001 2.2850001 9
6.652 -2.118 0.89700001 15
7.145 -2.293 1.0829999 15
7.7270002 -2.4990001 1.301 13
8.4440002 -2.7550001 1.566 14
9.3439999 -3.076 1.895 12
10.376 -3.447 2.2850001 9
6.6570001 -2.148 0.89700001 14
7.1440001 -2.322 1.082 13
7.7160001 -2.527 1.298 13
8.4300003 -2.7839999 1.563 14
9.3360004 -3.1099999 1.892 13
10.386 -3.4909999 2.2869999 12
0 0 0 50
7.145 -2.3499999 1.08 15
7.7210002 -2.5580001 1.298 14
8.4379997 -2.819 1.562 14
9.3319998 -3.1440001 1.8890001 12
10.351 -3.5179999 2.276 9
6.6490002 -2.197 0.89300001 16
7.1490002 -2.378 1.079 15
7.7179999 -2.586 1.295 13
8.4239998 -2.8440001 1.558 17
9.3269997 -3.175 1.886 13
10.34 -3.5510001 2.2709999 10
6.6409998 -2.2179999 0.88999999 15
7.1350002 -2.398 1.075 13
7.7150002 -2.612 1.2920001 12
8.4230003 -2.8729999 1.5549999 15
9.3219995 -3.2049999 1.881 14
10.355 -3.5910001 2.2720001 10
6.6329999 -2.237 0.88700002 15
7.1259999 -2.4189999 1.071 14
7.704 -2.6329999 1.288 12
8.4209995 -2.9000001 1.551 13
9.3070002 -3.2290001 1.875 15
10.322 -3.6110001 2.26 10
6.6290002 -2.257 0.88300002 16
7.1199999 -2.4389999 1.067 13
7.6869998 -2.651 1.2819999 12
8.3959999 -2.9159999 1.543 13
9.2910004 -3.2509999 1.868 13
10.299 -3.6329999 2.25 10
6.619 -2.273 0.87900001 16
7.1059999 -2.4549999 1.062 12
7.6719999 -2.668 1.275 13
8.3879995 -2.937 1.5369999 14
9.2550001 -3.2639999 1.8559999 12
10.259 -3.645 2.2360001 11
0 0 0 50
7.0869999 -2.467 1.0549999 14
7.6609998 -2.684 1.2690001 13
8.3620005 -2.9489999 1.528 14
9.2460003 -3.283 1.848 13
10.238 -3.6630001 2.2260001 10
6.5869999 -2.2969999 0.86699998 14
7.0760002 -2.4809999 1.05 14
7.631 -2.6919999 1.26 13
8.3369999 -2.96 1.518 13
9.2030001 -3.289 1.834 12
10.186 -3.6670001 2.2079999 11
0 6.1440001 0 0
0 0 0 0
0 0 0 0
0 0 0 255
6.5760002 -2.3080001 0.86199999 15
7.0619998 -2.4920001 1.043 16
7.6279998 -2.707 1.2539999 13
8.3190002 -2.97 1.5089999 13
9.1730003 -3.2969999 1.822 12
10.143 -3.671 2.191 10
6.5650001 -2.319 0.85600001 14
7.0349998 -2.497 1.034 13
0 0 0 50
8.2810001 -2.9719999 1.4960001 13
9.1490002 -3.3050001 1.8099999 13
10.098 -3.6719999 2.174 11
6.5500002 -2.325 0.84899998 16
7.0170002 -2.503 1.026 14
7.5679998 -2.714 1.233 13
8.2469997 -2.974 1.484 14
9.1049995 -3.303 1.794 12
10.053 -3.671 2.1559999 11
6.526 -2.3269999 0.84100002 15
6.994 -2.506 1.017 15
7.546 -2.717 1.224 14
8.2119999 -2.9719999 1.471 14
9.0649996 -3.3 1.779 13
9.9940004 -3.661 2.135 11
6.5 -2.3269999 0.83200002 15
6.967 -2.5050001 1.007 14
7.5079999 -2.7119999 1.211 13
8.1789999 -2.9690001 1.457 14
9.0249996 -3.2950001 1.763 13
9.9390001 -3.651 2.1129999 11
6.4770002 -2.326 0.824 15
6.9419999 -2.503 0.99699998 15
0 0 0 50
8.1370001 -2.9619999 1.442 14
8.9779997 -3.2850001 1.745 13
9.8789997 -3.6359999 2.0910001 11
6.4590001 -2.326 0.815 16
6.9070001 -2.497 0.986 15
7.4429998 -2.701 1.186 13
8.0959997 -2.9519999 1.428 14
8.9219999 -3.27 1.725 13
9.835 -3.6240001 2.072 11
6.434 -2.3210001 0.80599999 17
6.882 -2.4920001 0.97600001 15
7.4190001 -2.6960001 1.175 13
8.0469999 -2.938 1.41 14
8.8800001 -3.257 1.7079999 13
9.7700005 -3.602 2.0469999 11
6.4099998 -2.3150001 0.796 16
6.8499999 -2.4820001 0.96399999 15
7.3730001 -2.6819999 1.16 13
8.0159998 -2.927 1.396 14
8.8269997 -3.2379999 1.688 13
9.6940002 -3.5739999 2.02 12
6.3870001 -2.3080001 0.787 16
6.8249998 -2.474 0.95300001 14
7.3400002 -2.6700001 1.147 13
7.9640002 -2.908 1.3789999 14
8.7709999 -3.2160001 1.6670001 13
9.6300001 -3.5480001 1.997 12
0 0 0 50
6.789 -2.46 0.94099998 14
7.3070002 -2.6559999 1.1339999 13
7.9219999 -2.8900001 1.363 14
8.7130003 -3.191 1.647 13
9.5609999 -3.5179999 1.971 12
6.3299999 -2.2850001 0.76599997 15
6.757 -2.4449999 0.92900002 14
7.2639999 -2.6370001 1.119 13
7.8769999 -2.869 1.346 14
8.6599998 -3.1659999 1.626 13
9.5 -3.4879999 1.946 12
6.3000002 -2.2709999 0.75599998 15
6.7199998 -2.428 0.91600001 14
7.2259998 -2.618 1.105 13
7.829 -2.845 1.3279999 14
8.599 -3.1359999 1.604 13
9.4230003 -3.45 1.919 12
6.2620001 -2.253 0.74400002 15
6.6820002 -2.408 0.903 14
7.191 -2.598 1.091 13
7.7810001 -2.819 1.3099999 13
8.5419998 -3.105 1.5829999 14
9.3559999 -3.4130001 1.893 12
6.2410002 -2.2379999 0.73400003 16
6.6529999 -2.3900001 0.89099997 13
7.1529999 -2.575 1.076 14
7.7270002 -2.789 1.2920001 14
8.4809999 -3.0699999 1.5599999 14
9.283 -3.3729999 1.867 12
6.2129998 -2.22 0.72299999 16
6.618 -2.369 0.87900001 15
7.1129999 -2.55 1.062 13
7.677 -2.7590001 1.274 14
8.4230003 -3.036 1.539 13
9.2110004 -3.3299999 1.839 12
0 6.1440001 0 0
0 0 0 0
0 0 0 0
0 0 0 255
6.1820002 -2.2 0.71200001 16
6.5840001 -2.346 0.866 15
7.0609999 -2.52 1.045 13
7.6269999 -2.7279999 1.256 13
8.3540001 -2.9949999 1.516 13
9.1379995 -3.286 1.813 11
6.1500001 -2.178 0.70099998 16
6.5479999 -2.3210001 0.85299999 16
7.0190001 -2.4920001 1.03 13
7.5760002 -2.694 1.238 13
8.2939997 -2.9560001 1.494 13
9.0640001 -3.2390001 1.7869999 12
6.1230001 -2.1559999 0.69 15
6.5159998 -2.296 0.84100002 15
6.9809999 -2.4630001 1.016 16
7.5229998 -2.658 1.22 14
8.2229996 -2.911 1.47 13
8.9980001 -3.194 1.762 12
6.0910001 -2.131 0.67900002 15
6.4809999 -2.2690001 0.829 16
6.9310002 -2.4289999 1 14
7.4809999 -2.6240001 1.2029999 14
8.165 -2.8699999 1.449 13
8.9289999 -3.145 1.7359999 11
6.059 -2.105 0.66900003 14
6.448 -2.2409999 0.81599998 15
6.8940001 -2.398 0.986 14
7.4250002 -2.585 1.184 13
8.1049995 -2.826 1.428 13
8.8570004 -3.0940001 1.71 12
6.0310001 -2.0799999 0.65799999 16
6.408 -2.2090001 0.80299997 15
6.862 -2.3670001 0.972 14
7.375 -2.546 1.1670001 14
8.0469999 -2.7809999 1.4069999 13
8.7770004 -3.039 1.683 12
5.9980001 -2.0510001 0.64700001 14
6.3779998 -2.1800001 0.792 16
6.8140001 -2.329 0.95700002 14
7.3340001 -2.5090001 1.151 13
7.9809999 -2.733 1.386 13
8.7119999 -2.987 1.659 13
5.967 -2.0220001 0.63700002 16
6.3400002 -2.1470001 0.77899998 15
6.77 -2.2920001 0.94300002 15
7.2870002 -2.4679999 1.1339999 13
7.927 -2.687 1.3660001 13
8.6520004 -2.9360001 1.636 13
5.9580002 -1.999 0.62900001 15
6.3169999 -2.118 0.76800001 15
6.737 -2.2579999 0.92900002 15
7.2410002 -2.427 1.118 13
7.875 -2.641 1.347 13
8.5839996 -2.881 1.612 12
5.9050002 -1.961 0.616 16
6.2800002 -2.0829999 0.75599998 15
6.6929998 -2.2190001 0.91500002 15
0 0 0 50
7.8280001 -2.595 1.329 16
8.5229998 -2.8269999 1.59 12
5.8779998 -1.9299999 0.60600001 16
6.2480001 -2.049 0.74599999 15
6.6589999 -2.1819999 0.903 15
7.1560001 -2.3440001 1.0880001 15
7.7600002 -2.5409999 1.308 13
8.4399996 -2.7650001 1.563 12
5.8709998 -1.905 0.59899998 14
6.2119999 -2.0120001 0.73400003 15
6.6199999 -2.142 0.88999999 14
7.1069999 -2.2980001 1.071 15
7.71 -2.493 1.29 13
8.3889999 -2.7119999 1.543 13
5.8140001 -1.863 0.58700001 15
6.1830001 -1.977 0.72399998 15
6.5879998 -2.1040001 0.87800002 15
7.0710001 -2.256 1.058 15
7.671 -2.447 1.275 15
8.3260002 -2.655 1.522 13
5.7930002 -1.831 0.57800001 16
6.1539998 -1.942 0.713 15
6.552 -2.0639999 0.866 16
7.0279999 -2.211 1.044 14
7.6139998 -2.3940001 1.256 17
8.2580004 -2.596 1.5 13
5.7779999 -1.801 0.57099998 17
6.1269999 -1.906 0.704 15
6.5229998 -2.0250001 0.85500002 15
6.9860001 -2.1659999 1.03 16
7.5700002 -2.345 1.2410001 16
8.1920004 -2.536 1.478 12
5.7509999 -1.766 0.56199998 17
6.1079998 -1.8710001 0.69499999 16
6.4920001 -1.985 0.84399998 16
6.9460001 -2.1199999 1.016 17
7.5300002 -2.296 1.226 15
8.1429996 -2.48 1.46 13
0 6.1440001 0 0
0 0 0 0
0 0 0 0
0 0 0 255
5.7290001 -1.732 0.55400002 17
6.0739999 -1.831 0.685 16
6.4629998 -1.944 0.833 16
6.914 -2.076 1.0039999 18
7.4809999 -2.243 1.209 14
8.0900002 -2.4230001 1.442 13
5.6999998 -1.6950001 0.546 19
6.033 -1.789 0.67400002 17
6.4349999 -1.903 0.82300001 16
6.875 -2.029 0.99199998 18
7.4429998 -2.1919999 1.1950001 14
8.0439997 -2.3670001 1.425 13
5.6810002 -1.66 0.53899997 18
6.0139999 -1.752 0.667 17
6.4099998 -1.862 0.81400001 16
6.8379998 -1.982 0.98000002 17
7.3969998 -2.1400001 1.181 15
7.9980001 -2.3099999 1.408 14
5.6609998 -1.625 0.53100002 16
5.9780002 -1.71 0.65700001 17
6.3860002 -1.821 0.80500001 17
6.8070002 -1.936 0.96899998 16
7.3540001 -2.0869999 1.1670001 15
7.9489999 -2.2520001 1.392 13
5.6399999 -1.5880001 0.52499998 17
5.967 -1.674 0.64999998 17
6.3369999 -1.772 0.79299998 19
6.7729998 -1.8890001 0.95700002 16
7.316 -2.0350001 1.154 16
7.8940001 -2.191 1.375 14
5.6209998 -1.552 0.51800001 17
5.934 -1.632 0.64200002 18
6.3270001 -1.734 0.78600001 16
6.7480001 -1.844 0.94800001 16
7.2810001 -1.984 1.142 16
7.8530002 -2.135 1.36 12
5.5999999 -1.515 0.51200002 16
5.8839998 -1.585 0.63200003 15
6.3039999 -1.692 0.778 16
6.7220001 -1.798 0.93900001 17
7.2480001 -1.933 1.13 15
7.8109999 -2.0780001 1.346 14
5.5830002 -1.478 0.50599998 16
5.8920002 -1.553 0.62800002 17
6.277 -1.648 0.76999998 15
6.6999998 -1.752 0.93000001 16
7.2049999 -1.8789999 1.117 15
7.7870002 -2.0250001 1.336 12
5.5640001 -1.441 0.5 17
5.8709998 -1.513 0.62099999 17
6.25 -1.604 0.76200002 15
6.677 -1.706 0.92199999 16
7.1890001 -1.831 1.109 17
7.7420001 -1.965 1.321 13
5.5450001 -1.402 0.495 16
5.8569999 -1.473 0.616 17
6.224 -1.559 0.75400001 15
6.6399999 -1.656 0.912 15
7.1529999 -1.778 1.098 15
7.7049999 -1.908 1.309 12
5.5190001 -1.362 0.48899999 16
5.8280001 -1.4299999 0.60900003 18
6.1859999 -1.511 0.745 18
6.6279998 -1.612 0.90499997 16
7.1290002 -1.727 1.09 14
7.6700001 -1.851 1.298 13
5.5139999 -1.326 0.48500001 17
5.8099999 -1.39 0.60299999 16
6.1690001 -1.4680001 0.73900002 18
6.6040001 -1.564 0.898 16
7.105 -1.676 1.081 15
7.6409998 -1.795 1.288 12
5.4850001 -1.284 0.479 18
5.796 -1.349 0.59799999 17
6.1719999 -1.429 0.736 15
6.579 -1.516 0.88999999 16
7.0710001 -1.622 1.071 15
7.6110001 -1.738 1.277 13
0 0 0 50
5.7859998 -1.3099999 0.59399998 16
6.1259999 -1.3789999 0.727 17
6.5619998 -1.469 0.884 16
7.052 -1.571 1.064 15
7.5760002 -1.6799999 1.266 13
5.4650002 -1.209 0.472 15
5.7649999 -1.267 0.58899999 16
6.1209998 -1.337 0.72299999 18
6.54 -1.421 0.87699997 16
7.026 -1.5190001 1.056 16
7.5580001 -1.626 1.2589999 13
5.4549999 -1.17 0.46799999 15
5.757 -1.227 0.58499998 17
6.0929999 -1.29 0.71600002 16
6.5240002 -1.373 0.87199998 16
7.013 -1.4680001 1.05 17
7.5419998 -1.571 1.252 13
0 6.1440001 0 0
0 0 0 0
0 0 0 0
0 0 0 255
5.4380002 -1.13 0.46399999 16
5.7389998 -1.184 0.58099997 17
6.0669999 -1.244 0.70999998 16
6.4990001 -1.324 0.86500001 15
6.9819999 -1.414 1.0420001 15
7.5229998 -1.515 1.245 14
5.4219999 -1.09 0.46000001 15
5.7290001 -1.143 0.57700002 17
6.0999999 -1.209 0.71100003 15
6.4809999 -1.276 0.86000001 16
6.974 -1.365 1.038 15
7.5029998 -1.46 1.238 13
5.4180002 -1.052 0.458 17
5.711 -1.1 0.57300001 16
6.0799999 -1.163 0.70599997 14
6.4650002 -1.228 0.85500002 15
6.9559999 -1.313 1.0319999 15
7.4790001 -1.403 1.23 13
5.4159999 -1.0140001 0.456 16
5.704 -1.059 0.56999999 16
6.073 -1.119 0.70300001 14
6.454 -1.181 0.85100001 15
6.9260001 -1.258 1.024 16
7.4619999 -1.347 1.225 14
5.3979998 -0.97299999 0.45300001 16
5.6880002 -1.016 0.56599998 16
6.0120001 -1.066 0.69400001 16
6.447 -1.1339999 0.847 15
6.9200001 -1.2079999 1.021 16
7.4390001 -1.29 1.2180001 15
5.3889999 -0.93300003 0.44999999 18
5.6820002 -0.97500002 0.56400001 16
5.9990001 -1.021 0.69099998 16
6.4320002 -1.085 0.84299999 15
6.8959999 -1.155 1.015 15
7.4099998 -1.232 1.21 14
5.3779998 -0.89200002 0.44800001 18
5.677 -0.93400002 0.56199998 16
5.9879999 -0.97600001 0.68699998 15
6.4099998 -1.036 0.838 15
6.8870001 -1.103 1.011 16
7.3860002 -1.174 1.204 15
5.3790002 -0.85399997 0.44600001 15
5.6680002 -0.89099997 0.56 16
5.9840002 -0.93199998 0.685 17
6.3920002 -0.98699999 0.83399999 15
6.8660002 -1.05 1.006 16
7.3699999 -1.118 1.199 15
5.3540001 -0.81099999 0.44299999 17
5.6570001 -0.84799999 0.55699998 15
5.9770002 -0.88700002 0.68300003 15
0 0 0 50
6.8530002 -0.99800003 1.002 15
7.3590002 -1.062 1.194 13
