# .PCD v0.7 - Point Cloud Data file format
VERSION 0.7
FIELDS x y z intensity
SIZE 4 4 4 4
TYPE F F F F
COUNT 1 1 1 1
WIDTH 1640
HEIGHT 1
VIEWPOINT 0 0 0 1 0 0 0
POINTS 1640
DATA ascii
4.3759999 -0.83700001 0.068999998 17
4.5619998 -0.86500001 0.145 15
4.7930002 -0.903 0.229 15
5.0469999 -0.94400001 0.32100001 16
4.0190001 -0.759 -0.064999998 18
4.1830001 -0.78399998 -0.001 15
4.3720002 -0.81199998 0.068000004 18
4.5489998 -0.838 0.14300001 17
4.789 -0.87599999 0.227 16
5.033 -0.91399997 0.31799999 16
4.0139999 -0.73699999 -0.066 19
4.1789999 -0.75999999 -0.003 17
4.3610001 -0.78600001 0.066 18
4.5479999 -0.81300002 0.141 16
4.7740002 -0.84600002 0.22400001 15
5.0310001 -0.88499999 0.31600001 16
4.0050001 -0.713 -0.068000004 21
4.1719999 -0.73500001 -0.0040000002 16
4.3530002 -0.75999999 0.064000003 17
4.5409999 -0.78600001 0.139 16
4.7719998 -0.81900001 0.222 16
5.027 -0.85600001 0.31400001 17
4.0019999 -0.68900001 -0.068999998 18
4.1620002 -0.70999998 -0.0060000001 17
4.3460002 -0.73400003 0.061999999 16
4.5430002 -0.75999999 0.13699999 16
4.7529998 -0.78799999 0.219 15
5.0079999 -0.82300001 0.31099999 16
4 -0.66600001 -0.07 17
4.1560001 -0.685 -0.0070000002 16
4.3379998 -0.70700002 0.061000001 15
4.5310001 -0.73199999 0.13600001 17
4.7490001 -0.75999999 0.21799999 17
5.0050001 -0.79299998 0.30899999 17
3.993 -0.64099997 -0.071000002 17
4.1560001 -0.66000003 -0.0080000004 16
4.3280001 -0.68000001 0.059999999 16
4.527 -0.704 0.134 15
4.7420001 -0.73000002 0.21600001 16
4.9879999 -0.76099998 0.30700001 16
3.9890001 -0.61699998 -0.071999997 18
4.1399999 -0.63300002 -0.0080000004 15
4.3249998 -0.653 0.059 16
4.5139999 -0.67500001 0.133 15
4.743 -0.70099998 0.215 16
4.9860001 -0.73000002 0.30500001 19
3.987 -0.59200001 -0.071999997 19
4.1259999 -0.60500002 -0.0089999996 14
4.3210001 -0.62599999 0.057999998 16
4.5139999 -0.64700001 0.132 16
4.7360001 -0.671 0.214 15
4.9759998 -0.69700003 0.30399999 16
3.9890001 -0.56699997 -0.072999999 17
4.1370001 -0.58099997 -0.0099999998 17
4.316 -0.59899998 0.057 15
4.5110002 -0.61799997 0.131 15
4.7290001 -0.64099997 0.212 17
4.9660001 -0.66500002 0.30199999 16
3.983 -0.542 -0.072999999 17
4.1360002 -0.55500001 -0.011 17
4.3189998 -0.57200003 0.056000002 16
4.5110002 -0.58999997 0.13 16
4.7249999 -0.611 0.211 15
4.9650002 -0.634 0.301 15
3.983 -0.51700002 -0.074000001 16
4.1459999 -0.52999997 -0.011 18
4.3119998 -0.54400003 0.056000002 15
4.5050001 -0.56099999 0.13 15
4.7210002 -0.57999998 0.211 14
4.9640002 -0.602 0.30000001 16
3.9719999 -0.49000001 -0.074000001 17
4.1279998 -0.50099999 -0.011 17
4.3070002 -0.51599997 0.055 17
4.493 -0.52999997 0.12899999 16
4.7199998 -0.54900002 0.20999999 15
4.954 -0.56800002 0.29899999 17
3.9749999 -0.46399999 -0.074000001 16
4.1220002 -0.47400001 -0.012 16
4.303 -0.48699999 0.055 16
4.4899998 -0.5 0.12899999 14
4.7119999 -0.51700002 0.20900001 16
4.9530001 -0.53600001 0.29899999 15
3.9719999 -0.43700001 -0.074000001 17
4.125 -0.447 -0.012 17
4.3070002 -0.45899999 0.055 16
4.4949999 -0.47099999 0.12800001 16
4.7160001 -0.48699999 0.20900001 15
4.9499998 -0.50300002 0.29800001 15
0 6.1440001 0 0
0 0 0 0
0 0 0 0
0 0 0 255
3.9619999 -0.41 -0.074000001 16
4.119 -0.419 -0.012 16
4.3049998 -0.43000001 0.055 16
4.4840002 -0.44100001 0.12800001 15
4.7129998 -0.45500001 0.20900001 15
4.941 -0.46900001 0.29699999 15
3.9660001 -0.384 -0.074000001 17
4.1110001 -0.391 -0.012 15
4.2940001 -0.40000001 0.054000001 15
4.487 -0.41 0.12800001 14
4.7119999 -0.42300001 0.20900001 14
4.941 -0.435 0.29699999 15
3.9630001 -0.35600001 -0.074000001 17
4.1139998 -0.36300001 -0.012 15
4.2930002 -0.37099999 0.054000001 14
4.4829998 -0.37900001 0.12800001 14
4.7129998 -0.391 0.20900001 15
4.9330001 -0.40099999 0.296 14
3.96 -0.329 -0.074000001 16
4.1209998 -0.33500001 -0.012 16
4.2930002 -0.34099999 0.055 15
4.4840002 -0.34900001 0.12800001 12
4.6960001 -0.35699999 0.208 15
4.9299998 -0.36700001 0.296 16
3.9560001 -0.301 -0.072999999 16
4.112 -0.30599999 -0.012 16
4.2839999 -0.31099999 0.055 13
4.4840002 -0.31799999 0.12800001 14
4.7059999 -0.32499999 0.208 16
4.9260001 -0.33199999 0.296 16
3.9590001 -0.27399999 -0.072999999 16
4.1129999 -0.27700001 -0.011 15
4.2880001 -0.28099999 0.055 13
4.48 -0.28600001 0.12800001 15
4.7080002 -0.292 0.208 17
4.9239998 -0.29699999 0.296 15
3.9549999 -0.245 -0.072999999 16
4.1079998 -0.24699999 -0.011 15
4.2880001 -0.25099999 0.055 15
4.4770002 -0.25400001 0.12800001 15
4.7010002 -0.25799999 0.208 16
4.9200001 -0.26199999 0.29499999 16
3.9560001 -0.21699999 -0.071999997 16
4.1100001 -0.21799999 -0.011 14
4.2820001 -0.22 0.055 14
4.4749999 -0.222 0.12800001 15
4.6950002 -0.22499999 0.208 15
4.9260001 -0.228 0.296 20
3.951 -0.189 -0.071999997 15
4.1079998 -0.189 -0.011 14
4.2870002 -0.19 0.055 14
4.4759998 -0.191 0.12800001 14
4.6919999 -0.192 0.208 14
4.915 -0.193 0.296 15
3.954 -0.161 -0.071999997 14
4.1040001 -0.16 -0.0099999998 15
4.2839999 -0.15899999 0.056000002 14
4.4679999 -0.15800001 0.12800001 14
4.6929998 -0.15800001 0.208 17
4.9060001 -0.15700001 0.29499999 16
3.9519999 -0.132 -0.071999997 15
4.1040001 -0.13 -0.0099999998 14
4.2820001 -0.12800001 0.056000002 13
4.4650002 -0.126 0.12800001 14
4.6890001 -0.124 0.20900001 18
4.9120002 -0.122 0.296 16
3.9519999 -0.103 -0.071000002 15
4.112 -0.1 -0.0099999998 17
4.2839999 -0.097000003 0.056000002 16
4.4699998 -0.093000002 0.12899999 16
4.6849999 -0.089000002 0.20900001 15
4.9070001 -0.085000001 0.296 17
3.95 -0.072999999 -0.071000002 16
4.098 -0.068999998 -0.0089999996 17
4.276 -0.064999998 0.056000002 15
4.4660001 -0.059999999 0.12899999 15
4.6820002 -0.055 0.20900001 15
4.9099998 -0.048999999 0.296 17
3.9489999 -0.044 -0.071000002 18
4.0999999 -0.039000001 -0.0089999996 16
4.2750001 -0.033 0.057 16
4.4590001 -0.027000001 0.12899999 15
4.6830001 -0.02 0.20900001 15
4.9039998 -0.013 0.296 16
3.944 -0.015 -0.07 17
4.0900002 -0.0080000004 -0.0089999996 18
4.2680001 -0.001 0.057 16
4.461 0.0049999999 0.12899999 16
4.6789999 0.014 0.20900001 17
4.902 0.023 0.296 16
3.944 0.014 -0.07 16
4.0840001 0.022 -0.0089999996 16
4.2729998 0.029999999 0.057 16
4.454 0.039000001 0.12899999 14
4.6719999 0.048999999 0.20900001 16
4.8909998 0.059999999 0.296 17
0 6.1440001 0 0
0 0 0 0
0 0 0 0
0 0 0 255
3.9400001 0.044 -0.07 21
4.0799999 0.052999999 -0.0080000004 18
4.2670002 0.063000001 0.057 15
4.4499998 0.072999999 0.12899999 14
4.6750002 0.083999999 0.20900001 16
4.8990002 0.097000003 0.296 16
3.9389999 0.075000003 -0.068999998 18
4.0879998 0.083999999 -0.0080000004 15
4.2680001 0.094999999 0.057 16
4.4499998 0.107 0.13 13
4.6729999 0.12 0.20900001 17
4.8969998 0.134 0.296 18
3.9419999 0.105 -0.068999998 15
4.0879998 0.116 -0.0080000004 14
4.2649999 0.12800001 0.057999998 16
4.448 0.141 0.13 14
4.6690001 0.155 0.20900001 17
4.8909998 0.171 0.296 16
3.934 0.13500001 -0.068999998 15
4.0970001 0.147 -0.0080000004 16
4.2649999 0.16 0.057999998 14
4.4530001 0.175 0.13 14
4.6739998 0.192 0.20999999 17
4.8899999 0.20900001 0.296 16
3.937 0.16599999 -0.068999998 17
4.0910001 0.17900001 -0.0080000004 16
4.2589998 0.19400001 0.057999998 14
4.4510002 0.20999999 0.13 16
4.6620002 0.227 0.20900001 15
4.8940001 0.24699999 0.29699999 19
3.937 0.197 -0.068999998 16
4.085 0.211 -0.0080000004 14
4.2610002 0.227 0.057999998 15
4.4450002 0.244 0.13 15
4.6599998 0.264 0.20900001 15
4.8959999 0.285 0.29699999 19
3.9349999 0.228 -0.068999998 16
4.0960002 0.244 -0.0080000004 16
4.257 0.25999999 0.057999998 15
4.4400001 0.278 0.13 12
4.658 0.30000001 0.20900001 16
4.881 0.32300001 0.296 18
3.9300001 0.25799999 -0.068999998 14
4.0799999 0.27500001 -0.0080000004 15
4.2480001 0.29300001 0.057 13
4.4390001 0.31299999 0.12899999 14
4.6570001 0.336 0.20900001 16
4.8779998 0.36000001 0.296 18
3.9300001 0.289 -0.068999998 15
4.0840001 0.30700001 -0.0080000004 16
4.2480001 0.32600001 0.057 15
4.4310002 0.347 0.12899999 15
4.6599998 0.373 0.20900001 18
4.8720002 0.398 0.29499999 17
3.9219999 0.31999999 -0.068999998 16
4.0770001 0.33899999 -0.0080000004 16
4.2509999 0.36000001 0.057 15
4.4320002 0.38299999 0.12899999 14
4.6469998 0.40900001 0.208 16
4.8660002 0.43599999 0.294 18
3.921 0.352 -0.07 16
4.072 0.37099999 -0.0089999996 15
4.244 0.39399999 0.057 15
4.4299998 0.41800001 0.12800001 14
4.6409998 0.44499999 0.208 16
4.8639998 0.47499999 0.294 18
3.921 0.38299999 -0.07 17
4.0710001 0.40400001 -0.0089999996 15
4.2410002 0.428 0.056000002 16
4.4299998 0.454 0.12800001 15
4.645 0.48300001 0.207 16
4.8540001 0.51300001 0.29300001 18
3.914 0.41499999 -0.07 20
4.0580001 0.43599999 -0.0089999996 14
4.2319999 0.461 0.055 16
4.4250002 0.48899999 0.12800001 16
4.6339998 0.51899999 0.206 16
4.8629999 0.55299997 0.29300001 19
3.908 0.44600001 -0.071000002 15
4.0599999 0.46900001 -0.0099999998 14
4.2290001 0.495 0.055 16
4.4239998 0.52499998 0.127 16
4.6300001 0.55699998 0.206 16
4.8600001 0.59200001 0.29300001 18
3.908 0.47799999 -0.071000002 16
4.0609999 0.50300002 -0.011 16
4.224 0.52899998 0.054000001 15
4.4159999 0.56 0.126 16
4.631 0.59500003 0.205 17
4.849 0.63099998 0.29100001 19
3.904 0.50999999 -0.071999997 16
4.0570002 0.53600001 -0.011 15
4.2249999 0.565 0.052999999 15
4.414 0.597 0.125 16
4.6279998 0.63300002 0.204 17
4.8509998 0.671 0.29100001 19
0 6.1440001 0 0
0 0 0 0
0 0 0 0
0 0 0 255
3.8940001 0.54100001 -0.072999999 16
4.0549998 0.56999999 -0.012 17
4.2210002 0.59899998 0.052999999 16
4.4029999 0.63099998 0.124 15
4.6230001 0.67000002 0.20299999 18
4.8319998 0.708 0.289 18
3.8929999 0.574 -0.074000001 17
4.0479999 0.602 -0.013 17
4.21 0.63200003 0.052000001 15
4.401 0.66799998 0.123 16
4.618 0.708 0.20200001 19
4.8379998 0.74900001 0.28799999 19
3.885 0.60500002 -0.075000003 16
4.04 0.63499999 -0.014 18
4.2090001 0.667 0.050999999 16
4.3940001 0.70300001 0.122 15
4.6129999 0.74599999 0.20100001 20
4.8369999 0.78899997 0.28799999 19
3.885 0.63800001 -0.075999998 17
4.0359998 0.66900003 -0.015 17
4.2020001 0.70200002 0.048999999 14
4.3909998 0.74000001 0.121 15
4.599 0.78200001 0.2 17
4.8239999 0.82800001 0.28600001 19
3.8789999 0.67000002 -0.077 17
4.0310001 0.70200002 -0.016000001 18
4.1929998 0.736 0.048 16
4.381 0.77499998 0.12 16
4.5939999 0.81999999 0.198 17
4.8189998 0.86799997 0.28400001 19
3.8710001 0.70200002 -0.078000002 17
4.0209999 0.73500001 -0.017999999 17
4.191 0.77100003 0.046999998 15
4.3779998 0.81199998 0.118 17
4.5939999 0.85900003 0.197 18
4.8119998 0.90700001 0.28299999 21
3.862 0.73299998 -0.079000004 19
4.02 0.76899999 -0.018999999 18
4.1859999 0.80599999 0.045000002 17
4.368 0.847 0.117 17
4.5819998 0.89600003 0.19499999 18
4.802 0.94599998 0.28099999 20
3.8510001 0.76499999 -0.081 19
4.013 0.80199999 -0.021 19
4.1799998 0.84100002 0.044 18
4.3600001 0.88300002 0.115 18
4.5760002 0.93400002 0.193 17
4.7940001 0.98500001 0.27900001 20
3.855 0.79900002 -0.082000002 17
4.006 0.83499998 -0.022 17
4.1750002 0.87599999 0.041999999 18
4.3559999 0.92000002 0.113 17
4.5710001 0.972 0.192 18
4.7930002 1.026 0.278 21
3.849 0.83099997 -0.083999999 18
3.9960001 0.86799997 -0.024 17
4.165 0.91000003 0.039999999 19
4.3540001 0.95700002 0.112 18
4.5689998 1.011 0.19 19
4.7859998 1.066 0.27599999 20
3.839 0.86299998 -0.086000003 17
3.994 0.90200001 -0.026000001 18
4.1570001 0.94400001 0.039000001 18
4.3429999 0.99199998 0.11 17
4.5599999 1.048 0.18799999 19
4.7690001 1.103 0.273 20
3.8239999 0.89300001 -0.086999997 19
3.984 0.935 -0.027000001 18
4.1490002 0.97899997 0.037 17
4.3239999 1.026 0.107 15
4.5479999 1.085 0.186 19
4.7670002 1.145 0.271 20
3.8239999 0.92699999 -0.089000002 17
3.9820001 0.97000003 -0.028999999 18
4.1409998 1.013 0.035 17
4.323 1.064 0.105 16
4.5320001 1.1210001 0.183 17
4.7550001 1.183 0.26899999 20
3.816 0.95899999 -0.090999998 17
3.9649999 1.001 -0.030999999 19
4.132 1.048 0.032000002 18
4.3189998 1.101 0.103 17
4.526 1.16 0.18099999 17
4.7340002 1.221 0.266 19
3.8069999 0.99199998 -0.093000002 17
3.957 1.035 -0.034000002 19
4.119 1.082 0.029999999 16
4.3049998 1.136 0.101 17
4.52 1.199 0.17900001 19
4.73 1.261 0.26300001 20
3.799 1.024 -0.094999999 18
3.9519999 1.069 -0.035999998 20
4.118 1.119 0.028000001 17
4.2979999 1.173 0.097999997 18
4.5100002 1.2359999 0.176 19
4.7259998 1.303 0.26100001 20
0 6.1440001 0 0
0 0 0 0
0 0 0 0
0 0 0 255
3.7920001 1.056 -0.097999997 18
3.941 1.102 -0.037999999 19
4.1100001 1.154 0.026000001 18
4.2940001 1.21 0.096000001 17
4.4970002 1.274 0.17299999 18
4.7150002 1.342 0.25799999 20
3.7839999 1.089 -0.1 18
3.9319999 1.135 -0.039999999 19
4.099 1.188 0.023 19
4.2779999 1.245 0.093000002 18
4.48 1.309 0.171 16
4.6939998 1.3789999 0.255 19
3.7739999 1.1210001 -0.102 21
3.925 1.169 -0.043000001 18
4.0869999 1.222 0.021 19
4.2680001 1.281 0.090999998 17
4.4809999 1.35 0.168 20
4.6929998 1.421 0.25299999 19
3.7690001 1.154 -0.105 19
3.9170001 1.2029999 -0.045000002 17
4.0809999 1.257 0.017999999 17
4.2589998 1.317 0.088 17
4.4679999 1.388 0.16500001 19
4.6849999 1.461 0.25 20
3.7550001 1.1849999 -0.107 20
3.9100001 1.237 -0.048 17
4.0679998 1.291 0.015 18
4.2509999 1.354 0.085000001 18
4.448 1.4220001 0.162 17
4.664 1.497 0.24600001 18
3.743 1.216 -0.11 17
3.901 1.271 -0.050999999 19
4.0650001 1.3279999 0.013 18
4.244 1.391 0.082999997 17
4.441 1.461 0.15899999 18
4.6550002 1.538 0.243 18
3.734 1.249 -0.112 20
3.8900001 1.304 -0.052999999 21
4.0549998 1.362 0.0099999998 18
4.2280002 1.425 0.079999998 17
4.4359999 1.501 0.156 18
4.6440001 1.577 0.23999999 18
3.7290001 1.2819999 -0.115 19
3.882 1.3380001 -0.056000002 20
4.039 1.395 0.0070000002 21
4.2220001 1.4630001 0.077 19
4.4219999 1.538 0.153 20
4.632 1.6160001 0.237 19
3.723 1.316 -0.118 22
3.869 1.37 -0.059 24
4.0310001 1.431 0.0040000002 21
4.204 1.497 0.074000001 19
4.4130001 1.576 0.15000001 22
4.618 1.655 0.234 19
3.7090001 1.346 -0.121 20
3.8529999 1.401 -0.061999999 20
4.0159998 1.4630001 0.001 22
4.1939998 1.5319999 0.071000002 19
4.3990002 1.612 0.147 21
4.612 1.696 0.23100001 16
3.698 1.378 -0.124 22
3.8440001 1.4349999 -0.064999998 21
4.0050001 1.498 -0.001 20
4.1849999 1.569 0.067000002 20
4.3839998 1.649 0.14399999 20
4.599 1.735 0.227 17
3.6930001 1.4119999 -0.127 21
3.8410001 1.471 -0.068000004 21
3.993 1.5319999 -0.0040000002 22
4.177 1.6059999 0.064000003 20
4.3759999 1.687 0.14 18
4.5809999 1.772 0.22400001 17
3.6819999 1.443 -0.13 21
3.829 1.503 -0.071000002 23
3.994 1.5700001 -0.0070000002 20
4.1609998 1.64 0.061000001 19
4.3629999 1.724 0.13699999 20
4.5700002 1.812 0.22 18
3.668 1.474 -0.133 22
3.813 1.534 -0.074000001 20
3.974 1.601 -0.011 22
4.1550002 1.678 0.057999998 20
4.3520002 1.762 0.134 19
4.5580001 1.851 0.21699999 19
3.664 1.508 -0.13600001 22
3.8099999 1.5700001 -0.077 22
3.9679999 1.638 -0.014 19
4.1360002 1.711 0.054000001 19
4.3460002 1.802 0.131 16
4.5469999 1.891 0.213 20
3.6489999 1.538 -0.139 22
3.7939999 1.601 -0.079999998 19
3.954 1.671 -0.017000001 21
4.1360002 1.751 0.050999999 19
4.3200002 1.8329999 0.127 17
4.5310001 1.928 0.20999999 18
0 6.1440001 0 0
0 0 0 0
0 0 0 0
0 0 0 255
3.6329999 1.568 -0.142 23
3.7869999 1.636 -0.082999997 21
3.944 1.706 -0.02 21
4.1139998 1.7819999 0.048 18
4.316 1.874 0.124 16
4.5240002 1.97 0.207 18
3.6240001 1.6 -0.145 22
3.7639999 1.663 -0.086000003 20
3.9360001 1.7410001 -0.023 20
4.1040001 1.819 0.045000002 17
4.2969999 1.908 0.12 17
4.5079999 2.007 0.20299999 17
3.6110001 1.631 -0.148 22
3.756 1.697 -0.090000004 19
3.9170001 1.772 -0.026000001 20
4.0929999 1.854 0.041000001 15
4.2880001 1.947 0.117 17
4.4990001 2.0480001 0.2 15
3.5969999 1.661 -0.15099999 22
3.743 1.729 -0.093000002 19
3.9130001 1.809 -0.029999999 22
4.0780001 1.888 0.037999999 17
4.2789998 1.985 0.114 19
4.487 2.0869999 0.197 17
3.589 1.693 -0.154 22
3.7460001 1.768 -0.096000001 21
3.902 1.8430001 -0.033 20
4.0619998 1.921 0.035 17
4.2690001 2.023 0.11 16
4.473 2.125 0.193 17
3.5810001 1.726 -0.15700001 22
3.734 1.801 -0.098999999 19
3.885 1.875 -0.035999998 20
4.0580001 1.961 0.032000002 16
4.2490001 2.056 0.107 15
4.4629998 2.165 0.19 17
3.5710001 1.758 -0.161 22
3.7179999 1.831 -0.102 20
3.8770001 1.91 -0.039000001 18
4.04 1.993 0.028000001 16
4.243 2.096 0.104 15
4.454 2.2049999 0.18700001 17
3.562 1.79 -0.164 18
3.7030001 1.8609999 -0.105 17
3.865 1.944 -0.041999999 17
4.033 2.03 0.025 16
4.2379999 2.1370001 0.101 15
4.4439998 2.2449999 0.184 16
3.5439999 1.818 -0.16599999 21
3.6930001 1.8940001 -0.109 18
3.855 1.978 -0.045000002 20
4.02 2.0639999 0.022 17
4.2179999 2.1689999 0.097000003 15
4.4310002 2.283 0.18000001 17
3.533 1.848 -0.169 21
3.684 1.927 -0.112 19
3.8469999 2.013 -0.048999999 21
4.0110002 2.1010001 0.018999999 18
4.2119999 2.2090001 0.094999999 18
4.4299998 2.3280001 0.178 17
3.53 1.883 -0.17299999 25
3.678 1.962 -0.115 23
3.832 2.0439999 -0.052000001 20
3.993 2.132 0.016000001 19
4.2010002 2.2460001 0.090999998 22
4.4190001 2.3670001 0.175 17
3.5190001 1.914 -0.176 27
3.6589999 1.99 -0.117 20
3.822 2.079 -0.055 19
3.9890001 2.171 0.013 20
4.1849999 2.28 0.088 19
4.408 2.4070001 0.17200001 19
3.51 1.946 -0.17900001 21
3.6489999 2.0220001 -0.12 18
3.812 2.112 -0.057 21
3.9719999 2.2019999 0.0099999998 19
4.1739998 2.3169999 0.086000003 20
4.3969998 2.4449999 0.169 18
3.5020001 1.978 -0.182 21
3.6389999 2.0539999 -0.123 20
3.799 2.1440001 -0.059999999 19
3.974 2.244 0.0080000004 17
4.1680002 2.3559999 0.082999997 17
4.3870001 2.484 0.16599999 18
3.49 2.007 -0.184 23
3.6300001 2.0869999 -0.126 19
3.79 2.1789999 -0.063000001 19
3.96 2.277 0.0049999999 18
4.1669998 2.3989999 0.079999998 14
4.3769999 2.5239999 0.164 18
3.48 2.0380001 -0.18700001 20
3.6159999 2.1159999 -0.12800001 17
3.7820001 2.2130001 -0.066 18
3.9519999 2.313 0.0020000001 17
4.1490002 2.431 0.078000002 16
4.3709998 2.5650001 0.161 16
0 6.1440001 0 0
0 0 0 0
0 0 0 0
0 0 0 255
3.4719999 2.0699999 -0.19 19
3.6070001 2.148 -0.131 16
3.773 2.2460001 -0.068000004 17
3.947 2.3510001 0 17
4.1409998 2.4690001 0.075000003 16
4.3660002 2.6070001 0.15899999 17
3.461 2.099 -0.192 18
3.5969999 2.1800001 -0.134 19
3.766 2.2820001 -0.071000002 17
3.9430001 2.3889999 -0.0020000001 15
4.138 2.51 0.072999999 15
4.3499999 2.642 0.156 17
3.454 2.131 -0.19499999 18
3.5899999 2.2130001 -0.13600001 16
3.7590001 2.316 -0.072999999 17
3.928 2.421 -0.0040000002 16
4.1240001 2.543 0.071000002 18
4.3390002 2.6800001 0.154 18
3.4460001 2.1619999 -0.197 20
3.5829999 2.2460001 -0.139 17
3.7449999 2.346 -0.075000003 19
3.9189999 2.4560001 -0.0060000001 17
4.1149998 2.5799999 0.068999998 16
4.3400002 2.7249999 0.153 15
3.4419999 2.1949999 -0.2 19
3.573 2.276 -0.141 18
3.733 2.3770001 -0.077 19
3.9130001 2.4920001 -0.0080000004 17
4.112 2.6199999 0.067000002 15
4.3239999 2.7590001 0.15000001 17
3.427 2.221 -0.20200001 18
3.5650001 2.3080001 -0.14300001 17
3.73 2.4130001 -0.079999998 20
3.9070001 2.5280001 -0.0099999998 17
4.105 2.6570001 0.064999998 16
4.3200002 2.8 0.149 16
3.424 2.2539999 -0.204 18
3.556 2.3380001 -0.145 16
3.7260001 2.4489999 -0.082000002 17
3.9000001 2.563 -0.012 15
4.1020002 2.698 0.063000001 15
4.3200002 2.8440001 0.148 15
3.415 2.2839999 -0.206 16
3.552 2.372 -0.147 18
3.7190001 2.4820001 -0.083999999 18
3.891 2.596 -0.014 16
4.099 2.737 0.061999999 14
4.3119998 2.8829999 0.146 15
3.404 2.3099999 -0.208 19
3.546 2.404 -0.149 17
3.711 2.5139999 -0.085000001 20
3.8840001 2.631 -0.015 16
4.0929999 2.773 0.059999999 14
4.3080001 2.9230001 0.145 15
3.3989999 2.3410001 -0.20999999 18
3.539 2.434 -0.15000001 16
3.7049999 2.546 -0.086999997 17
3.881 2.6670001 -0.017000001 15
4.0910001 2.812 0.059 14
4.3039999 2.9619999 0.14399999 14
3.3889999 2.368 -0.211 19
3.5339999 2.4649999 -0.152 15
3.7 2.579 -0.088 17
3.8759999 2.701 -0.017999999 16
4.086 2.849 0.057999998 14
4.296 2.9990001 0.14300001 14
3.385 2.398 -0.213 19
3.5320001 2.4990001 -0.154 17
3.697 2.6129999 -0.089000002 16
3.8699999 2.734 -0.018999999 17
4.079 2.8829999 0.057 17
4.2969999 3.04 0.14300001 19
3.3759999 2.425 -0.214 21
3.523 2.526 -0.155 17
3.6919999 2.645 -0.090999998 18
3.8610001 2.7650001 -0.02 17
4.079 2.9219999 0.057 16
4.2870002 3.075 0.14300001 18
3.3670001 2.45 -0.215 18
3.5220001 2.559 -0.156 20
3.687 2.677 -0.090999998 17
3.862 2.802 -0.021 17
4.0710001 2.9549999 0.056000002 16
4.2839999 3.1129999 0.142 18
3.359 2.4760001 -0.21600001 17
3.527 2.595 -0.15700001 17
3.6849999 2.7090001 -0.092 18
3.8610001 2.8369999 -0.021 17
4.0700002 2.9920001 0.056000002 16
4.2800002 3.1500001 0.14300001 18
3.3540001 2.5039999 -0.21699999 19
3.517 2.6210001 -0.15800001 16
3.678 2.737 -0.093000002 19
3.8559999 2.869 -0.021 16
4.0669999 3.027 0.056000002 17
4.2820001 3.1900001 0.14300001 17
0 6.1440001 0 0
0 0 0 0
0 0 0 0
0 0 0 255
3.3559999 2.5350001 -0.21799999 19
3.5139999 2.6500001 -0.15800001 16
3.674 2.7679999 -0.093000002 17
3.8599999 2.9070001 -0.022 16
4.066 3.062 0.056000002 16
4.2789998 3.2260001 0.14300001 17
3.3499999 2.5599999 -0.21799999 18
3.5179999 2.6830001 -0.15899999 17
3.6730001 2.799 -0.093000002 19
3.8510001 2.934 -0.022 17
4.0609999 3.0940001 0.056000002 16
4.2810001 3.2650001 0.14399999 18
3.3529999 2.5910001 -0.219 17
3.5109999 2.7079999 -0.15899999 16
3.6700001 2.8280001 -0.093000002 19
3.859 2.9719999 -0.021 16
4.0640001 3.131 0.057 16
4.276 3.2980001 0.145 17
3.3529999 2.619 -0.22 17
3.5079999 2.7349999 -0.16 16
3.671 2.859 -0.093000002 19
3.8380001 2.9879999 -0.021 14
4.0700002 3.1689999 0.057999998 16
4.277 3.3329999 0.146 17
3.3469999 2.641 -0.22 19
3.5020001 2.7579999 -0.15899999 18
3.6630001 2.882 -0.093000002 17
3.8559999 3.0320001 -0.021 16
4.0650001 3.198 0.059 16
4.283 3.3729999 0.147 17
3.3469999 2.6670001 -0.22 20
3.506 2.789 -0.15899999 16
3.6700001 2.9159999 -0.093000002 15
3.8440001 3.053 -0.02 15
4.0650001 3.23 0.059999999 15
4.3010001 3.4200001 0.15000001 15
3.3510001 2.6960001 -0.22 17
3.5050001 2.8139999 -0.15899999 17
3.6600001 2.9349999 -0.092 16
3.8510001 3.0869999 -0.018999999 16
4.0619998 3.257 0.061000001 16
4.2810001 3.437 0.15099999 17
3.3410001 2.711 -0.219 19
3.4979999 2.8329999 -0.15800001 15
3.665 2.9649999 -0.090999998 16
3.8570001 3.119 -0.017999999 16
4.0669999 3.29 0.061999999 16
4.2989998 3.4820001 0.153 15
3.3440001 2.7360001 -0.219 19
3.507 2.865 -0.15800001 16
3.661 2.987 -0.090000004 15
3.8529999 3.142 -0.017000001 16
4.0689998 3.3199999 0.064000003 16
4.303 3.5139999 0.155 15
3.358 2.77 -0.219 16
3.5050001 2.8859999 -0.15700001 15
3.6689999 3.017 -0.089000002 15
3.8499999 3.165 -0.015 16
4.0700002 3.346 0.066 16
4.3070002 3.5450001 0.15800001 15
3.352 2.786 -0.21799999 15
3.507 2.9089999 -0.156 15
3.668 3.039 -0.088 16
3.8559999 3.1930001 -0.014 16
4.073 3.3740001 0.068000004 15
4.3049998 3.5699999 0.16 15
3.3559999 2.8080001 -0.21699999 16
3.5139999 2.9349999 -0.155 15
3.671 3.062 -0.086000003 15
3.8540001 3.214 -0.012 15
4.0939999 3.415 0.071000002 14
4.3169999 3.605 0.163 15
3.362 2.8310001 -0.21600001 14
3.5109999 2.95 -0.154 15
3.675 3.085 -0.085000001 16
3.8640001 3.2420001 -0.0099999998 15
4.098 3.4400001 0.072999999 14
4.3150001 3.6259999 0.16500001 14
3.3599999 2.8440001 -0.215 15
3.517 2.9719999 -0.152 15
3.6789999 3.1059999 -0.082999997 16
3.865 3.2609999 -0.0080000004 15
4.1030002 3.464 0.075000003 16
4.3249998 3.6559999 0.169 16
3.368 2.8670001 -0.214 16
3.5190001 2.99 -0.15099999 16
3.6730001 3.1170001 -0.081 16
3.8640001 3.2780001 -0.0060000001 16
4.099 3.4779999 0.078000002 15
4.335 3.6830001 0.17200001 18
3.368 2.8789999 -0.212 15
3.5179999 3.0020001 -0.149 16
3.668 3.1270001 -0.079000004 15
3.869 3.2969999 -0.003 17
4.1160002 3.5090001 0.081 16
4.3390002 3.704 0.175 16
0 6.1440001 0 0
0 0 0 0
0 0 0 0
0 0 0 255
3.369 2.892 -0.211 16
3.5239999 3.0190001 -0.147 15
3.681 3.151 -0.077 16
3.8740001 3.3150001 -0.001 17
4.1110001 3.5190001 0.082999997 16
4.3470001 3.7260001 0.178 15
3.3729999 2.905 -0.20900001 17
3.5320001 3.0369999 -0.145 16
3.687 3.1659999 -0.075000003 16
3.905 3.352 0.001 15
4.1240001 3.543 0.086000003 15
4.3530002 3.7449999 0.182 15
3.3729999 2.914 -0.207 16
3.529 3.043 -0.14300001 15
3.711 3.1960001 -0.072999999 14
3.9070001 3.365 0.003 14
4.1279998 3.5569999 0.090000004 16
4.3629999 3.7639999 0.185 16
3.382 2.928 -0.205 17
3.5339999 3.053 -0.141 14
3.724 3.2149999 -0.071000002 15
3.9119999 3.3770001 0.0060000001 14
4.1339998 3.5699999 0.093000002 15
4.3699999 3.779 0.189 16
3.3829999 2.9330001 -0.20299999 16
3.533 3.0580001 -0.139 14
3.73 3.2249999 -0.068000004 15
3.921 3.3900001 0.0089999996 15
4.1420002 3.5829999 0.096000001 15
4.3829999 3.7969999 0.193 16
3.391 2.9430001 -0.20100001 15
3.5469999 3.073 -0.13600001 14
3.73 3.2290001 -0.066 14
3.9300001 3.401 0.012 15
4.151 3.595 0.098999999 15
4.388 3.806 0.19599999 17
3.3989999 2.951 -0.199 15
3.5420001 3.0699999 -0.134 14
3.737 3.237 -0.063000001 14
3.9300001 3.404 0.015 15
4.1539998 3.5999999 0.102 15
4.3909998 3.812 0.2 17
3.404 2.9549999 -0.197 15
3.5450001 3.072 -0.131 14
3.7449999 3.243 -0.061000001 14
3.9449999 3.4159999 0.017000001 15
4.165 3.609 0.105 15
4.4060001 3.8239999 0.20299999 16
3.4070001 2.9549999 -0.19499999 16
3.5599999 3.0829999 -0.13 14
3.7509999 3.2460001 -0.057999998 14
3.9530001 3.4200001 0.02 15
4.171 3.612 0.108 15
4.4109998 3.826 0.207 17
3.4119999 2.9560001 -0.193 16
3.5669999 3.085 -0.127 15
3.7639999 3.253 -0.056000002 15
3.9579999 3.4200001 0.023 15
4.1789999 3.6140001 0.111 15
4.421 3.8299999 0.20999999 16
3.421 2.957 -0.191 16
3.576 3.086 -0.125 14
3.7650001 3.247 -0.052999999 15
3.9630001 3.418 0.026000001 15
4.191 3.618 0.115 16
4.434 3.8340001 0.214 16
3.421 2.95 -0.18799999 16
3.5840001 3.086 -0.122 15
3.7780001 3.2509999 -0.050000001 15
3.967 3.4130001 0.028000001 16
4.198 3.615 0.118 16
4.4439998 3.8340001 0.21699999 17
3.434 2.951 -0.186 16
3.5899999 3.0810001 -0.12 14
3.7780001 3.24 -0.048 15
3.974 3.4089999 0.030999999 15
4.2030001 3.609 0.12 15
4.4520001 3.829 0.22 16
3.4349999 2.941 -0.184 16
3.5910001 3.0710001 -0.117 15
3.766 3.2179999 -0.045000002 16
3.9909999 3.411 0.034000002 16
4.2140002 3.605 0.123 16
4.46 3.822 0.223 16
3.437 2.9300001 -0.18099999 16
3.5999999 3.0650001 -0.115 15
3.7720001 3.2090001 -0.043000001 17
3.993 3.398 0.037 16
4.2189999 3.5940001 0.126 16
4.467 3.812 0.226 16
3.45 2.927 -0.18000001 17
3.6029999 3.053 -0.113 17
3.78 3.201 -0.041000001 18
3.9990001 3.3870001 0.039000001 16
4.2259998 3.582 0.12800001 16
4.473 3.7980001 0.228 14
0 6.1440001 0 0
0 0 0 0
0 0 0 0
0 0 0 255
3.454 2.914 -0.177 15
3.618 3.049 -0.111 14
3.779 3.1819999 -0.037999999 15
4.007 3.3759999 0.041000001 15
4.2379999 3.5739999 0.131 15
4.4819999 3.7869999 0.23100001 14
3.4560001 2.8989999 -0.175 15
3.628 3.039 -0.109 14
3.786 3.1700001 -0.035999998 14
4.0190001 3.3659999 0.043000001 15
4.2480001 3.5610001 0.133 15
4.4860001 3.767 0.233 14
3.467 2.8889999 -0.17399999 14
3.6259999 3.017 -0.107 15
3.7969999 3.158 -0.034000002 15
4.0190001 3.3440001 0.045000002 14
4.2540002 3.543 0.13500001 15
4.4959998 3.7509999 0.235 15
3.467 2.869 -0.171 15
3.631 3 -0.105 14
3.8 3.138 -0.033 15
4.0240002 3.325 0.046999998 14
4.2610002 3.523 0.13699999 15
4.5019999 3.73 0.237 15
3.4790001 2.8559999 -0.17 15
3.6429999 2.987 -0.104 15
3.799 3.1140001 -0.030999999 15
4.0159998 3.2920001 0.048 15
4.2690001 3.5039999 0.138 16
4.507 3.7060001 0.23800001 14
3.4790001 2.8329999 -0.168 16
3.6400001 2.961 -0.102 14
3.813 3.0999999 -0.028999999 16
4.0300002 3.2780001 0.050000001 15
4.2680001 3.4749999 0.14 14
4.5110002 3.6789999 0.23899999 15
3.4860001 2.8139999 -0.167 15
3.6530001 2.9449999 -0.101 15
3.813 3.073 -0.028000001 15
4.0440001 3.2609999 0.050999999 14
4.2740002 3.45 0.141 15
4.5170002 3.6530001 0.241 15
3.4890001 2.7909999 -0.16500001 16
3.6530001 2.9189999 -0.098999999 15
3.8280001 3.0580001 -0.027000001 16
4.0209999 3.2130001 0.052000001 16
4.2729998 3.418 0.141 15
4.52 3.622 0.241 15
3.5 2.773 -0.164 14
3.6600001 2.8970001 -0.097999997 15
3.832 3.0320001 -0.026000001 16
4.0320001 3.191 0.052999999 17
4.2610002 3.3759999 0.142 17
4.5180001 3.586 0.241 16
3.5009999 2.747 -0.163 16
3.6630001 2.8699999 -0.097000003 15
3.835 3.0050001 -0.025 16
4.04 3.1659999 0.054000001 17
4.2880001 3.3629999 0.14300001 15
4.5229998 3.5539999 0.241 16
3.507 2.723 -0.162 15
3.6659999 2.8429999 -0.096000001 16
3.8399999 2.977 -0.024 16
4.04 3.1329999 0.054000001 16
4.2670002 3.312 0.142 16
4.5300002 3.5220001 0.242 17
3.5139999 2.6989999 -0.161 15
3.665 2.812 -0.094999999 16
3.842 2.9460001 -0.024 17
4.0500002 3.1070001 0.054000001 17
4.276 3.2839999 0.142 17
4.527 3.4820001 0.241 16
3.5079999 2.664 -0.16 16
3.6719999 2.786 -0.094999999 16
3.8440001 2.915 -0.024 17
4.0469999 3.069 0.054000001 17
4.2719998 3.243 0.142 17
4.5209999 3.438 0.23999999 18
3.5139999 2.6370001 -0.16 16
3.6730001 2.7539999 -0.094999999 16
3.8429999 2.8800001 -0.023 17
4.0479999 3.0350001 0.054000001 18
4.2859998 3.2160001 0.142 19
4.527 3.4030001 0.23899999 16
3.5039999 2.599 -0.15899999 20
3.674 2.7219999 -0.093999997 18
3.848 2.8499999 -0.024 17
4.0489998 2.9990001 0.054000001 17
4.2880001 3.1789999 0.141 19
4.5209999 3.3570001 0.23800001 19
3.5120001 2.572 -0.15899999 16
3.674 2.688 -0.093999997 16
3.8469999 2.813 -0.024 19
4.0489998 2.9619999 0.052999999 17
4.2859998 3.138 0.14 18
4.526 3.319 0.236 20
0 6.1440001 0 0
0 0 0 0
0 0 0 0
0 0 0 255
3.5079999 2.5369999 -0.15800001 18
3.678 2.6559999 -0.093999997 17
3.8559999 2.783 -0.024 19
4.0510001 2.925 0.052000001 16
4.2740002 3.089 0.138 18
4.5240002 3.2739999 0.235 19
3.513 2.506 -0.15800001 19
3.6800001 2.622 -0.094999999 17
3.848 2.7409999 -0.025 17
4.0539999 2.888 0.052000001 17
4.2680001 3.043 0.13699999 18
4.5149999 3.224 0.23199999 19
3.513 2.4719999 -0.15800001 15
3.677 2.585 -0.094999999 16
3.848 2.704 -0.025 18
4.0489998 2.846 0.050000001 15
4.27 3.0020001 0.13500001 15
4.5159998 3.1800001 0.23 18
3.516 2.441 -0.15899999 14
3.6800001 2.5510001 -0.096000001 15
3.852 2.6689999 -0.026000001 18
4.0440001 2.802 0.048999999 16
4.2709999 2.9619999 0.134 16
4.5110002 3.132 0.228 18
3.513 2.4030001 -0.15899999 16
3.678 2.5139999 -0.096000001 15
3.858 2.6340001 -0.028000001 18
4.0419998 2.7609999 0.046999998 16
4.2729998 2.9200001 0.131 16
4.5079999 3.085 0.22499999 18
3.5150001 2.3699999 -0.15899999 16
3.6860001 2.4809999 -0.097000003 21
3.8510001 2.5910001 -0.028999999 18
4.0359998 2.7160001 0.046 17
4.263 2.8710001 0.12899999 15
4.4980001 3.033 0.222 19
3.5179999 2.336 -0.16 19
3.6819999 2.4419999 -0.097999997 16
3.8529999 2.5539999 -0.029999999 17
4.0370002 2.6760001 0.044 15
4.257 2.8239999 0.127 17
4.4980001 2.9860001 0.219 18
3.5139999 2.2980001 -0.16 15
3.677 2.401 -0.098999999 18
3.848 2.5109999 -0.030999999 16
4.039 2.6359999 0.041999999 16
4.2529998 2.777 0.124 15
4.4910002 2.9349999 0.21600001 17
3.517 2.2639999 -0.162 20
3.6760001 2.3629999 -0.1 15
3.8440001 2.47 -0.033 17
4.0300002 2.589 0.039999999 17
4.2550001 2.734 0.121 17
4.4850001 2.885 0.212 19
3.5190001 2.23 -0.163 15
3.6830001 2.3299999 -0.102 15
3.8429999 2.4289999 -0.035 18
4.0250001 2.5439999 0.037 18
4.243 2.6830001 0.119 18
4.4819999 2.8369999 0.208 18
3.5179999 2.1930001 -0.164 19
3.668 2.283 -0.103 16
3.845 2.391 -0.037 18
4.02 2.5 0.035 19
4.2379999 2.6359999 0.116 18
4.4720001 2.7839999 0.205 18
3.5190001 2.158 -0.16500001 19
3.6670001 2.2449999 -0.104 16
3.842 2.3499999 -0.039000001 17
4.0209999 2.4590001 0.033 17
4.2350001 2.5899999 0.112 17
4.4619999 2.7309999 0.20100001 19
3.517 2.119 -0.16599999 15
3.664 2.2049999 -0.106 17
3.8340001 2.3050001 -0.041000001 17
4.0180001 2.415 0.029999999 18
4.2220001 2.5380001 0.109 17
4.4489999 2.6760001 0.19599999 22
3.517 2.0840001 -0.168 16
3.6670001 2.1689999 -0.108 18
3.8299999 2.2639999 -0.043000001 17
4.0050001 2.3659999 0.027000001 17
4.211 2.4879999 0.106 19
4.4429998 2.6270001 0.192 23
3.5179999 2.0480001 -0.169 19
3.6619999 2.1289999 -0.11 16
3.832 2.2249999 -0.045000002 19
3.9979999 2.3210001 0.025 20
4.2090001 2.444 0.102 18
4.4380002 2.5780001 0.189 22
3.5179999 2.0120001 -0.171 20
3.655 2.0869999 -0.111 18
3.825 2.1819999 -0.046999998 18
3.997 2.279 0.022 19
4.1950002 2.392 0.098999999 20
4.4239998 2.523 0.184 22
0 6.1440001 0 0
0 0 0 0
0 0 0 0
0 0 0 255
3.506 1.97 -0.17200001 24
3.6470001 2.0450001 -0.113 17
3.825 2.142 -0.050000001 20
3.9860001 2.2309999 0.018999999 18
4.1869998 2.3440001 0.094999999 20
4.4070001 2.4679999 0.17900001 22
3.506 1.933 -0.17299999 21
3.6459999 2.007 -0.115 17
3.8210001 2.1010001 -0.052000001 18
3.987 2.191 0.016000001 19
4.1890001 2.3010001 0.092 22
4.4070001 2.4219999 0.175 23
3.5 1.8940001 -0.175 40
3.651 1.972 -0.117 17
3.8150001 2.0580001 -0.055 18
3.9820001 2.1470001 0.013 20
4.1760001 2.25 0.088 19
4.3899999 2.3670001 0.171 21
3.5 1.858 -0.177 26
3.6470001 1.933 -0.119 19
3.806 2.0139999 -0.057 18
3.9779999 2.1040001 0.0099999998 21
4.171 2.204 0.083999999 19
4.3769999 2.3139999 0.16599999 24
3.4990001 1.822 -0.178 25
3.6459999 1.895 -0.122 21
3.7980001 1.971 -0.059999999 15
3.97 2.0580001 0.0070000002 16
4.1690001 2.161 0.081 18
4.3709998 2.266 0.162 18
3.5020001 1.788 -0.18099999 27
3.6389999 1.855 -0.124 15
3.8039999 1.9349999 -0.061999999 16
3.97 2.0179999 0.0040000002 15
4.1599998 2.1129999 0.077 16
4.3600001 2.214 0.15700001 18
3.5020001 1.752 -0.183 17
3.6440001 1.8200001 -0.126 18
3.8010001 1.895 -0.064999998 17
3.9630001 1.974 0 15
4.1609998 2.0710001 0.072999999 19
4.348 2.164 0.152 22
3.507 1.72 -0.185 18
3.645 1.783 -0.12899999 18
3.7869999 1.85 -0.068000004 17
3.9630001 1.933 -0.0020000001 18
4.151 2.0239999 0.068999998 19
4.3400002 2.115 0.148 22
3.5020001 1.682 -0.18700001 18
3.6370001 1.743 -0.131 17
3.7880001 1.812 -0.07 18
3.954 1.8890001 -0.0049999999 18
4.1370001 1.974 0.064999998 17
4.329 2.0650001 0.14399999 20
3.5020001 1.646 -0.189 19
3.635 1.705 -0.133 19
3.783 1.771 -0.072999999 18
3.951 1.847 -0.0080000004 18
4.1339998 1.9299999 0.061999999 17
4.3280001 2.02 0.139 21
3.4979999 1.609 -0.191 16
3.6329999 1.6670001 -0.13500001 20
3.776 1.73 -0.075999998 19
3.9449999 1.8049999 -0.011 20
4.1350002 1.8890001 0.057999998 18
4.3189998 1.972 0.13500001 22
3.497 1.574 -0.193 17
3.6300001 1.63 -0.138 16
3.7709999 1.6900001 -0.079000004 17
3.9400001 1.762 -0.014 19
4.1279998 1.844 0.054000001 19
4.3200002 1.928 0.131 22
3.4890001 1.536 -0.19400001 18
3.6240001 1.591 -0.14 20
3.7720001 1.652 -0.081 20
3.9360001 1.721 -0.017999999 20
4.1230001 1.8 0.050999999 20
4.3099999 1.88 0.127 21
3.49 1.501 -0.19599999 18
3.619 1.553 -0.142 16
3.763 1.6109999 -0.083999999 18
3.927 1.678 -0.021 18
4.119 1.758 0.046999998 21
4.3010001 1.834 0.122 23
3.487 1.466 -0.198 20
3.6199999 1.518 -0.145 16
3.763 1.574 -0.086000003 18
3.921 1.637 -0.024 19
4.1100001 1.7130001 0.044 21
4.29 1.786 0.118 24
3.48 1.429 -0.2 19
3.618 1.482 -0.147 18
3.7590001 1.536 -0.089000002 19
3.914 1.595 -0.027000001 18
4.1079998 1.6720001 0.039999999 19
4.289 1.744 0.114 24
0 6.1440001 0 0
0 0 0 0
0 0 0 0
0 0 0 255
3.4820001 1.397 -0.20200001 18
3.6099999 1.443 -0.149 18
3.7509999 1.4960001 -0.090999998 20
3.9130001 1.557 -0.029999999 20
4.098 1.628 0.037 22
4.2800002 1.698 0.11 25
3.48 1.362 -0.204 17
3.615 1.411 -0.15099999 19
3.7509999 1.46 -0.093999997 19
3.905 1.516 -0.033 20
4.0910001 1.585 0.033 19
4.2740002 1.654 0.106 25
3.473 1.326 -0.206 17
3.6059999 1.372 -0.153 18
3.7509999 1.424 -0.097000003 20
3.8970001 1.476 -0.035 20
4.085 1.544 0.029999999 20
4.2690001 1.6109999 0.102 24
3.4690001 1.291 -0.207 20
3.6029999 1.337 -0.155 18
3.7509999 1.388 -0.098999999 19
3.902 1.4400001 -0.037999999 19
4.0799999 1.502 0.027000001 21
4.263 1.567 0.098999999 26
3.47 1.2589999 -0.20900001 19
3.605 1.303 -0.15800001 20
3.7409999 1.348 -0.102 21
3.8989999 1.401 -0.041000001 19
4.0689998 1.459 0.023 20
4.2589998 1.524 0.094999999 24
3.4579999 1.222 -0.211 19
3.5999999 1.268 -0.16 18
3.7379999 1.312 -0.104 18
3.8859999 1.36 -0.044 21
4.0689998 1.421 0.02 20
4.25 1.4809999 0.090999998 26
3.46 1.1900001 -0.213 18
3.598 1.233 -0.162 19
3.7349999 1.275 -0.106 19
3.8900001 1.324 -0.046 17
4.0619998 1.3789999 0.017000001 18
4.2340002 1.434 0.088 21
3.4590001 1.1569999 -0.214 16
3.5969999 1.199 -0.164 17
3.727 1.237 -0.108 19
3.872 1.2819999 -0.048999999 15
4.052 1.337 0.014 17
4.2399998 1.396 0.083999999 20
3.4530001 1.123 -0.21600001 16
3.5910001 1.163 -0.16500001 15
3.7290001 1.2029999 -0.111 15
3.8789999 1.247 -0.052000001 16
4.046 1.2970001 0.011 19
4.2290001 1.352 0.081 21
3.454 1.091 -0.21799999 16
3.589 1.1289999 -0.167 16
3.724 1.1670001 -0.113 16
3.8740001 1.209 -0.054000001 16
4.0409999 1.258 0.0089999996 17
4.2220001 1.3099999 0.078000002 21
3.4549999 1.0599999 -0.22 17
3.5810001 1.0930001 -0.169 17
3.72 1.131 -0.115 16
3.8659999 1.171 -0.056000002 17
4.0339999 1.2180001 0.0060000001 18
4.217 1.27 0.075000003 20
3.4549999 1.028 -0.221 16
3.5810001 1.061 -0.171 15
3.72 1.097 -0.117 16
3.869 1.137 -0.059 16
4.0279999 1.179 0.003 17
4.2140002 1.23 0.071999997 21
3.448 0.995 -0.222 15
3.582 1.028 -0.17299999 15
3.7219999 1.063 -0.119 15
3.862 1.099 -0.061000001 17
4.0339999 1.1440001 0.001 17
4.2119999 1.1900001 0.068999998 24
3.4430001 0.96200001 -0.223 16
3.5829999 0.99599999 -0.17399999 15
3.72 1.029 -0.121 15
3.858 1.063 -0.063000001 17
4.027 1.105 -0.001 17
4.2030001 1.149 0.066 20
3.4460001 0.93199998 -0.22499999 16
3.5780001 0.963 -0.176 14
3.717 0.995 -0.122 15
3.8510001 1.027 -0.064999998 16
4.0240002 1.068 -0.003 17
4.2010002 1.1109999 0.064000003 21
3.45 0.903 -0.227 16
3.569 0.92799997 -0.177 15
3.711 0.95999998 -0.124 16
3.849 0.991 -0.067000002 16
4.027 1.033 -0.0049999999 18
4.1989999 1.072 0.061000001 20
0 6.1440001 0 0
0 0 0 0
0 0 0 0
0 0 0 255
3.4460001 0.87099999 -0.228 15
3.573 0.898 -0.17900001 15
3.7130001 0.92799997 -0.126 15
3.848 0.95599997 -0.068999998 17
4.0250001 0.99599999 -0.0070000002 18
4.191 1.033 0.059 20
3.451 0.84200001 -0.23 15
3.5739999 0.86699998 -0.18000001 18
3.714 0.89499998 -0.12800001 15
3.8499999 0.92299998 -0.07 16
4.0180001 0.958 -0.0089999996 18
4.1900001 0.995 0.056000002 21
3.4430001 0.80900002 -0.23 14
3.5769999 0.83499998 -0.182 15
3.711 0.86199999 -0.12899999 14
3.849 0.889 -0.071999997 16
4.0139999 0.92199999 -0.011 18
4.1820002 0.95599997 0.054000001 20
3.4389999 0.778 -0.23100001 16
3.573 0.80299997 -0.183 15
3.7119999 0.829 -0.13 16
3.8469999 0.85399997 -0.074000001 17
4.0120001 0.88599998 -0.013 17
4.178 0.91799998 0.052000001 21
3.4400001 0.74900001 -0.23199999 15
3.5669999 0.77100003 -0.184 14
3.7149999 0.79799998 -0.132 14
3.8469999 0.82099998 -0.075000003 17
4.007 0.85000002 -0.015 18
4.1760001 0.88099998 0.050000001 22
3.444 0.72000003 -0.234 16
3.569 0.741 -0.185 13
3.7090001 0.764 -0.133 14
3.839 0.78600001 -0.077 18
4.0089998 0.81599998 -0.016000001 17
4.1729999 0.84399998 0.048 20
3.4400001 0.68900001 -0.234 16
3.572 0.70999998 -0.186 13
3.7049999 0.73199999 -0.134 14
3.842 0.75300002 -0.078000002 15
4.006 0.77999997 -0.017999999 17
4.177 0.80800003 0.046999998 20
3.444 0.66000003 -0.236 16
3.566 0.67799997 -0.18700001 15
3.7049999 0.69999999 -0.13500001 13
3.839 0.72000003 -0.079000004 15
4.0100002 0.74599999 -0.018999999 17
4.1700001 0.77100003 0.045000002 19
3.447 0.63200003 -0.237 16
3.572 0.64899999 -0.18799999 14
3.7030001 0.667 -0.13600001 13
3.846 0.68800002 -0.081 14
4.006 0.71100003 -0.021 16
4.1750002 0.736 0.044 19
3.4419999 0.602 -0.237 14
3.5650001 0.61799997 -0.189 14
3.7090001 0.63700002 -0.138 12
3.839 0.65399998 -0.081 13
4.0149999 0.67799997 -0.022 19
4.1690001 0.699 0.041999999 18
3.447 0.574 -0.23800001 13
3.5710001 0.58899999 -0.19 13
3.704 0.60500002 -0.138 12
3.839 0.62099999 -0.082999997 14
4.0139999 0.64399999 -0.023 18
4.1680002 0.66299999 0.041000001 19
3.4460001 0.54500002 -0.23899999 14
3.5680001 0.55800003 -0.191 13
3.7049999 0.574 -0.139 13
3.8410001 0.58999997 -0.083999999 14
4.0079999 0.60900003 -0.024 17
4.1680002 0.62800002 0.039999999 18
3.4460001 0.51599997 -0.23899999 17
3.5650001 0.528 -0.191 14
3.7090001 0.54400003 -0.14 13
3.8369999 0.55699998 -0.083999999 15
4.0100002 0.57599998 -0.025 16
4.171 0.59399998 0.039000001 19
3.45 0.48800001 -0.23999999 16
3.575 0.5 -0.192 12
3.7079999 0.51200002 -0.141 12
3.8410001 0.52499998 -0.085000001 13
4.007 0.542 -0.026000001 15
4.1620002 0.55699998 0.037999999 18
3.454 0.46000001 -0.241 14
3.572 0.47 -0.193 15
3.7090001 0.48199999 -0.141 13
3.845 0.49399999 -0.086000003 14
4.0100002 0.509 -0.026000001 15
4.164 0.523 0.037 17
3.4519999 0.43099999 -0.241 13
3.572 0.44 -0.193 13
3.7030001 0.45100001 -0.142 12
3.8440001 0.46200001 -0.086000003 14
4.006 0.47600001 -0.027000001 15
4.177 0.49000001 0.035999998 19
0 6.1440001 0 0
0 0 0 0
0 0 0 0
0 0 0 255
3.4579999 0.403 -0.242 14
3.5699999 0.41100001 -0.193 11
3.7079999 0.421 -0.142 12
3.839 0.43000001 -0.086999997 13
4.0120001 0.44299999 -0.028000001 15
4.1700001 0.45500001 0.035999998 19
3.4549999 0.375 -0.242 14
3.572 0.382 -0.19400001 13
3.7130001 0.391 -0.14300001 12
3.849 0.40000001 -0.088 15
4.0079999 0.41 -0.028000001 15
4.1729999 0.421 0.035 18
3.457 0.347 -0.242 13
3.575 0.354 -0.19400001 13
3.7119999 0.361 -0.14300001 12
3.848 0.368 -0.088 13
4.0180001 0.37799999 -0.028999999 16
4.1760001 0.38699999 0.035 18
3.4549999 0.31999999 -0.243 12
3.576 0.32499999 -0.19499999 13
3.714 0.331 -0.14399999 12
3.845 0.33700001 -0.088 12
4.0120001 0.34599999 -0.028999999 16
4.1789999 0.354 0.034000002 19
3.4560001 0.292 -0.243 13
3.582 0.29699999 -0.19499999 12
3.7190001 0.30199999 -0.14399999 13
3.8499999 0.30700001 -0.089000002 13
4.0100002 0.31299999 -0.028999999 16
4.177 0.31999999 0.034000002 18
3.461 0.26499999 -0.243 12
3.5829999 0.26800001 -0.19499999 12
3.7190001 0.27200001 -0.14399999 12
3.8529999 0.27599999 -0.089000002 13
4.0170002 0.28200001 -0.029999999 15
4.1859999 0.287 0.034000002 18
3.4649999 0.23800001 -0.244 12
3.5869999 0.23999999 -0.19599999 12
3.721 0.243 -0.14399999 14
3.859 0.24600001 -0.089000002 12
4.0219998 0.25 -0.029999999 15
4.1849999 0.25400001 0.034000002 18
3.471 0.211 -0.244 12
3.589 0.212 -0.19599999 11
3.727 0.214 -0.145 13
3.8529999 0.215 -0.089000002 12
4.0219998 0.21799999 -0.029999999 15
4.1880002 0.221 0.034000002 20
3.4719999 0.184 -0.244 12
3.5899999 0.184 -0.19599999 12
3.7279999 0.185 -0.145 11
3.8610001 0.185 -0.089000002 14
4.0289998 0.18700001 -0.029999999 15
4.1900001 0.18799999 0.034000002 17
3.474 0.15700001 -0.244 12
3.6010001 0.15700001 -0.197 13
3.724 0.156 -0.145 11
3.8610001 0.155 -0.089000002 13
4.0289998 0.156 -0.029999999 15
4.1950002 0.155 0.034000002 18
3.474 0.13 -0.244 12
3.5929999 0.12800001 -0.19599999 13
3.7290001 0.127 -0.145 11
3.8640001 0.126 -0.089000002 14
4.0300002 0.124 -0.029999999 16
4.197 0.123 0.034000002 19
3.4779999 0.103 -0.244 13
3.5999999 0.101 -0.19599999 14
3.737 0.097999997 -0.145 13
3.8670001 0.096000001 -0.089000002 14
4.0279999 0.093000002 -0.029999999 15
4.1929998 0.090000004 0.034000002 21
3.473 0.075999998 -0.244 12
3.598 0.072999999 -0.19599999 12
3.7390001 0.07 -0.145 14
3.872 0.066 -0.089000002 14
4.0170002 0.061999999 -0.028999999 18
4.2030001 0.057999998 0.034000002 21
3.4749999 0.050000001 -0.244 11
3.598 0.046 -0.19599999 13
3.7390001 0.041999999 -0.145 14
3.8729999 0.035999998 -0.089000002 14
4.0310001 0.030999999 -0.028999999 18
4.1999998 0.026000001 0.034000002 19
3.4809999 0.024 -0.244 13
3.599 0.018999999 -0.19599999 12
3.7409999 0.013 -0.145 12
3.8829999 0.0070000002 -0.089000002 15
4.0320001 0.001 -0.028999999 36
4.2090001 -0.0049999999 0.035 20
3.4809999 -0.001 -0.244 13
3.6059999 -0.0070000002 -0.19599999 14
3.7460001 -0.014 -0.145 13
3.8759999 -0.021 -0.089000002 15
4.0430002 -0.028999999 -0.028999999 15
4.217 -0.037 0.035 20
0 6.1440001 0 0
0 0 0 0
0 0 0 0
0 0 0 255
3.483 -0.027000001 -0.244 11
3.6029999 -0.034000002 -0.19599999 12
3.74 -0.041999999 -0.14399999 13
3.8859999 -0.050000001 -0.089000002 16
4.046 -0.059 -0.028999999 16
4.21 -0.068000004 0.035 20
3.4849999 -0.052999999 -0.244 13
3.6070001 -0.061000001 -0.19599999 12
3.7490001 -0.068999998 -0.14399999 13
3.8870001 -0.079000004 -0.088 14
4.0489998 -0.089000002 -0.028000001 16
4.224 -0.1 0.035999998 19
3.487 -0.078000002 -0.244 13
3.6159999 -0.086999997 -0.19599999 13
3.7490001 -0.097000003 -0.14399999 11
3.8870001 -0.107 -0.088 13
4.0609999 -0.119 -0.028000001 16
4.2259998 -0.131 0.035999998 20
3.4849999 -0.104 -0.244 13
3.618 -0.114 -0.19599999 12
3.7609999 -0.125 -0.14399999 13
3.8929999 -0.13600001 -0.088 13
4.0599999 -0.149 -0.028000001 16
4.2270002 -0.162 0.035999998 19
3.49 -0.12899999 -0.244 18
3.6159999 -0.14 -0.19599999 11
3.757 -0.152 -0.14399999 14
3.8929999 -0.164 -0.088 14
4.0539999 -0.178 -0.028000001 15
4.2309999 -0.193 0.037 18
3.497 -0.155 -0.244 14
3.6229999 -0.167 -0.19599999 12
3.7639999 -0.17900001 -0.14399999 13
3.8959999 -0.192 -0.088 13
4.0619998 -0.208 -0.027000001 15
4.2360001 -0.22400001 0.037 18
3.4949999 -0.18000001 -0.244 15
3.619 -0.193 -0.19599999 13
3.76 -0.206 -0.14399999 13
3.905 -0.221 -0.088 14
4.0700002 -0.23800001 -0.027000001 15
4.2399998 -0.255 0.037 21
3.4949999 -0.205 -0.244 15
3.6210001 -0.21799999 -0.19599999 13
3.7620001 -0.233 -0.14399999 12
3.9059999 -0.249 -0.086999997 14
4.0689998 -0.266 -0.027000001 17
4.244 -0.285 0.037999999 19
3.497 -0.23 -0.244 14
3.6240001 -0.244 -0.19599999 13
3.7650001 -0.25999999 -0.14399999 13
3.904 -0.27599999 -0.086999997 15
4.073 -0.29499999 -0.027000001 16
4.243 -0.315 0.037999999 20
3.5 -0.25400001 -0.244 14
3.632 -0.27000001 -0.19599999 14
3.767 -0.28600001 -0.14399999 13
3.9059999 -0.303 -0.086999997 15
4.0819998 -0.324 -0.027000001 17
4.244 -0.345 0.037999999 20
3.506 -0.27900001 -0.245 13
3.6340001 -0.29499999 -0.19599999 13
3.7709999 -0.31299999 -0.14399999 12
3.9100001 -0.331 -0.086999997 14
4.0830002 -0.35299999 -0.027000001 16
4.2519999 -0.375 0.037999999 18
3.5090001 -0.303 -0.245 15
3.6359999 -0.31999999 -0.19599999 12
3.77 -0.338 -0.14399999 13
3.914 -0.35800001 -0.086999997 15
4.0840001 -0.38100001 -0.027000001 15
4.256 -0.40400001 0.037999999 19
3.507 -0.32699999 -0.245 14
3.6289999 -0.345 -0.19599999 12
3.77 -0.36399999 -0.14399999 13
3.9119999 -0.38499999 -0.086999997 14
4.0879998 -0.40900001 -0.027000001 18
4.2589998 -0.43399999 0.037999999 19
3.507 -0.35100001 -0.245 15
3.6340001 -0.37 -0.197 14
3.773 -0.38999999 -0.14399999 14
3.9159999 -0.41100001 -0.088 15
4.0900002 -0.43700001 -0.027000001 16
4.263 -0.46200001 0.037999999 20
3.5109999 -0.375 -0.24600001 14
3.6389999 -0.39399999 -0.197 14
3.776 -0.41499999 -0.145 14
3.9130001 -0.43700001 -0.088 14
4.0929999 -0.46399999 -0.027000001 15
4.2639999 -0.491 0.037999999 19
3.513 -0.398 -0.24600001 14
3.6370001 -0.41800001 -0.197 12
3.7780001 -0.44100001 -0.145 13
3.9219999 -0.46399999 -0.088 16
4.0970001 -0.49200001 -0.027000001 17
4.2659998 -0.51999998 0.037999999 21
0 6.1440001 0 0
0 0 0 0
0 0 0 0
0 0 0 255
3.5090001 -0.421 -0.24600001 15
3.6389999 -0.44299999 -0.198 15
3.7809999 -0.46599999 -0.145 15
3.921 -0.49000001 -0.089000002 16
4.1009998 -0.51899999 -0.028000001 18
4.2659998 -0.54799998 0.037999999 21
3.5090001 -0.44400001 -0.24699999 17
3.6370001 -0.46599999 -0.198 15
3.7750001 -0.49000001 -0.146 12
3.9189999 -0.51499999 -0.089000002 15
4.0960002 -0.54500002 -0.028000001 18
4.27 -0.57599998 0.037999999 20
3.5090001 -0.46700001 -0.248 14
3.6359999 -0.48899999 -0.199 15
3.7809999 -0.51499999 -0.146 14
3.9219999 -0.54000002 -0.090000004 15
4.099 -0.57200003 -0.028999999 17
4.2589998 -0.602 0.037 21
3.5109999 -0.48899999 -0.248 14
3.6400001 -0.51300001 -0.2 14
3.7869999 -0.53899997 -0.147 15
3.9219999 -0.565 -0.090000004 14
4.0970001 -0.597 -0.028999999 16
4.263 -0.62900001 0.035999998 21
3.5079999 -0.51099998 -0.249 14
3.6440001 -0.53600001 -0.20100001 15
3.779 -0.56199998 -0.148 14
3.9260001 -0.58999997 -0.090999998 16
4.099 -0.62300003 -0.029999999 16
4.2639999 -0.65600002 0.035 21
3.51 -0.53299999 -0.25 15
3.638 -0.55800003 -0.20100001 13
3.7880001 -0.58700001 -0.149 15
3.924 -0.61400002 -0.092 16
4.099 -0.648 -0.030999999 18
4.2670002 -0.68199998 0.035 26
3.5079999 -0.55400002 -0.25099999 15
3.641 -0.57999998 -0.20200001 13
3.7809999 -0.60799998 -0.15000001 14
3.925 -0.63800001 -0.093000002 16
4.0949998 -0.67199999 -0.032000002 17
4.2659998 -0.70700002 0.034000002 23
3.5039999 -0.574 -0.252 15
3.6389999 -0.602 -0.20299999 13
3.78 -0.63099998 -0.15099999 13
3.915 -0.65899998 -0.093999997 13
4.0869999 -0.69499999 -0.033 18
4.2620001 -0.73199999 0.033 25
