# .PCD v0.7 - Point Cloud Data file format
VERSION 0.7
FIELDS x y z intensity
SIZE 4 4 4 4
TYPE F F F F
COUNT 1 1 1 1
WIDTH 1645
HEIGHT 1
VIEWPOINT 0 0 0 1 0 0 0
POINTS 1645
DATA ascii
3.4300001 -0.068000004 -0.266 13
3.566 -0.064000003 -0.221 13
3.7 -0.059 -0.171 15
3.1199999 -0.057999998 -0.38999999 14
3.2130001 -0.052999999 -0.34999999 15
3.3199999 -0.048 -0.30899999 13
3.431 -0.043000001 -0.26499999 12
3.559 -0.037 -0.219 14
3.697 -0.030999999 -0.17 16
3.1159999 -0.034000002 -0.38800001 16
3.2119999 -0.028999999 -0.34900001 17
3.3180001 -0.023 -0.308 14
3.4400001 -0.017000001 -0.26499999 13
3.5680001 -0.011 -0.219 13
3.701 -0.0040000002 -0.169 16
3.118 -0.011 -0.38800001 19
3.2179999 -0.0049999999 -0.34900001 16
3.3210001 0.001 -0.30700001 13
3.4400001 0.0080000004 -0.264 12
3.5599999 0.015 -0.21699999 13
3.704 0.023 -0.168 17
3.1170001 0.012 -0.38600001 16
3.2149999 0.018999999 -0.347 14
3.3180001 0.026000001 -0.30599999 13
3.4360001 0.034000002 -0.26199999 13
3.566 0.041999999 -0.21600001 13
3.7019999 0.050999999 -0.167 16
3.115 0.035999998 -0.38499999 16
3.2160001 0.043000001 -0.34599999 15
3.323 0.050999999 -0.30500001 12
3.434 0.059 -0.26100001 12
3.5739999 0.068999998 -0.21600001 12
3.6989999 0.078000002 -0.16599999 15
3.1199999 0.059999999 -0.38499999 15
3.211 0.068000004 -0.345 13
3.3280001 0.077 -0.30500001 11
3.4400001 0.086000003 -0.26100001 10
3.573 0.096000001 -0.215 13
3.704 0.106 -0.16500001 15
3.119 0.083999999 -0.384 16
3.2179999 0.093000002 -0.345 13
3.3299999 0.102 -0.30399999 12
3.4400001 0.112 -0.25999999 12
3.5680001 0.123 -0.214 14
3.704 0.13500001 -0.164 14
3.1199999 0.108 -0.384 15
3.217 0.118 -0.34400001 13
3.3269999 0.12800001 -0.303 14
3.4449999 0.138 -0.25999999 12
3.5769999 0.15099999 -0.214 15
3.7030001 0.163 -0.163 15
3.125 0.133 -0.38299999 15
3.223 0.14300001 -0.34400001 12
3.329 0.154 -0.303 12
3.4419999 0.16500001 -0.259 13
3.5739999 0.178 -0.213 13
3.7030001 0.191 -0.163 15
3.119 0.15700001 -0.382 13
3.2219999 0.168 -0.34400001 12
3.3329999 0.18000001 -0.303 12
3.4449999 0.192 -0.259 14
3.5710001 0.205 -0.212 12
3.698 0.219 -0.162 16
3.118 0.182 -0.382 14
3.2160001 0.193 -0.34200001 14
3.332 0.206 -0.30199999 12
3.4349999 0.21799999 -0.257 12
3.5680001 0.233 -0.211 13
3.697 0.248 -0.161 16
3.122 0.207 -0.382 15
3.223 0.219 -0.34299999 15
3.329 0.23199999 -0.301 12
3.4389999 0.24600001 -0.257 12
3.566 0.26100001 -0.211 14
3.698 0.27700001 -0.161 17
0 6.1440001 0 0
0 0 0 0
0 0 0 0
0 0 0 255
3.1199999 0.23100001 -0.38100001 15
3.2190001 0.244 -0.34200001 14
3.3299999 0.25799999 -0.301 13
3.4360001 0.27200001 -0.257 13
3.5680001 0.289 -0.211 13
3.6949999 0.30599999 -0.161 16
3.1159999 0.25600001 -0.38 14
3.214 0.26899999 -0.34099999 14
3.3329999 0.285 -0.301 13
3.4360001 0.30000001 -0.257 12
3.563 0.317 -0.20999999 15
3.6900001 0.33399999 -0.16 15
3.1170001 0.28099999 -0.38 13
3.2119999 0.29499999 -0.34099999 12
3.3280001 0.31099999 -0.301 13
3.4349999 0.32699999 -0.25600001 13
3.566 0.345 -0.20999999 13
3.694 0.36399999 -0.16 17
3.1140001 0.30599999 -0.38 15
3.2130001 0.32100001 -0.34099999 13
3.323 0.33700001 -0.30000001 12
3.4319999 0.354 -0.25600001 15
3.562 0.373 -0.20999999 13
3.6919999 0.39300001 -0.16 16
3.1140001 0.33199999 -0.38 15
3.2060001 0.34599999 -0.34099999 14
3.3199999 0.36399999 -0.30000001 13
3.425 0.38100001 -0.25600001 12
3.552 0.40099999 -0.20999999 16
3.6860001 0.42199999 -0.16 18
3.112 0.35699999 -0.38 15
3.204 0.37200001 -0.34099999 13
3.319 0.391 -0.30000001 13
3.427 0.40900001 -0.25600001 14
3.552 0.42899999 -0.20999999 16
3.6789999 0.45100001 -0.16 16
3.108 0.382 -0.38 15
3.207 0.39899999 -0.34099999 15
3.3169999 0.41800001 -0.301 14
3.4260001 0.43700001 -0.25600001 14
3.549 0.458 -0.20999999 15
3.6800001 0.48100001 -0.16 17
3.1099999 0.40799999 -0.38100001 15
3.2019999 0.42500001 -0.34099999 15
3.3169999 0.44499999 -0.301 15
3.428 0.465 -0.257 17
3.5469999 0.486 -0.20999999 15
3.677 0.50999999 -0.16 17
3.105 0.433 -0.38100001 14
3.197 0.44999999 -0.34099999 12
3.312 0.47099999 -0.301 13
3.4200001 0.49200001 -0.257 14
3.5510001 0.51599997 -0.211 14
3.674 0.54000002 -0.161 17
3.1029999 0.45899999 -0.38100001 17
3.1989999 0.477 -0.34200001 15
3.306 0.498 -0.301 14
3.4119999 0.51899999 -0.257 15
3.543 0.54400003 -0.211 14
3.6730001 0.56999999 -0.161 18
3.099 0.484 -0.382 18
3.1930001 0.50300002 -0.34200001 15
3.296 0.52399999 -0.301 12
3.405 0.546 -0.257 12
3.5350001 0.57200003 -0.211 14
3.665 0.59799999 -0.162 18
3.0929999 0.509 -0.382 16
3.188 0.52899998 -0.34299999 14
3.3010001 0.55199999 -0.303 14
3.4059999 0.574 -0.25799999 13
3.533 0.60100001 -0.212 16
3.661 0.62800002 -0.162 19
3.095 0.53600001 -0.38299999 18
3.1819999 0.55500001 -0.34299999 17
3.296 0.579 -0.303 18
3.405 0.60299999 -0.259 15
3.5239999 0.62900001 -0.213 17
3.6630001 0.65899998 -0.163 16
3.0880001 0.56099999 -0.384 18
3.181 0.58200002 -0.34400001 15
3.2920001 0.60600001 -0.30399999 14
3.401 0.63099998 -0.25999999 14
3.523 0.65799999 -0.214 17
3.6570001 0.68800002 -0.164 17
3.085 0.58700001 -0.38499999 17
3.1760001 0.60799998 -0.345 16
3.2869999 0.63300002 -0.30500001 16
3.3940001 0.65799999 -0.26100001 15
3.5220001 0.68800002 -0.215 16
3.6530001 0.71799999 -0.16500001 16
3.0780001 0.61199999 -0.38499999 14
3.171 0.634 -0.34599999 15
3.2869999 0.66100001 -0.30599999 16
3.3900001 0.68599999 -0.26199999 14
3.5150001 0.71600002 -0.21600001 15
3.6459999 0.74699998 -0.16599999 16
0 6.1440001 0 0
0 0 0 0
0 0 0 0
0 0 0 255
3.073 0.63800001 -0.38600001 18
3.1689999 0.66100001 -0.347 15
3.2709999 0.68599999 -0.30599999 16
3.3829999 0.713 -0.26300001 15
3.5050001 0.74400002 -0.21600001 15
3.641 0.77700001 -0.167 17
3.066 0.66299999 -0.38699999 16
3.1630001 0.68699998 -0.34799999 15
3.2690001 0.713 -0.308 15
3.3699999 0.73900002 -0.26300001 15
3.5 0.77200001 -0.21799999 16
3.631 0.80599999 -0.168 17
3.059 0.68699998 -0.38800001 18
3.1570001 0.713 -0.34900001 16
3.266 0.741 -0.30899999 16
3.3710001 0.76800001 -0.26499999 14
3.5009999 0.80199999 -0.219 14
3.6300001 0.83700001 -0.17 18
3.0580001 0.71399999 -0.38999999 15
3.1589999 0.741 -0.35100001 16
3.2550001 0.76599997 -0.31 19
3.3640001 0.796 -0.266 13
3.493 0.83099997 -0.221 15
3.619 0.86500001 -0.171 18
3.0539999 0.74000001 -0.391 18
3.1470001 0.76599997 -0.352 16
3.2490001 0.79400003 -0.31099999 35
3.362 0.82499999 -0.26800001 14
3.4909999 0.86000001 -0.222 15
3.6129999 0.89499998 -0.17299999 19
3.0450001 0.76499999 -0.39199999 18
3.1459999 0.79299998 -0.354 21
3.2420001 0.81999999 -0.31200001 46
3.352 0.852 -0.26899999 13
3.4820001 0.88800001 -0.22400001 17
3.609 0.926 -0.17399999 19
3.0409999 0.79100001 -0.39399999 17
3.1400001 0.81900001 -0.35499999 44
3.2360001 0.847 -0.31400001 50
3.345 0.87900001 -0.271 13
3.4760001 0.917 -0.226 15
3.6059999 0.95599997 -0.176 17
3.036 0.81699997 -0.39500001 18
3.1270001 0.84399998 -0.35600001 43
3.23 0.875 -0.31600001 47
3.3410001 0.90799999 -0.273 14
3.4660001 0.94499999 -0.227 16
3.598 0.98500001 -0.178 17
3.026 0.84200001 -0.39700001 29
3.122 0.87 -0.35800001 42
3.227 0.90200001 -0.31799999 47
3.335 0.93599999 -0.27399999 15
3.4579999 0.97399998 -0.229 16
3.5869999 1.0140001 -0.18000001 16
3.0109999 0.86500001 -0.39700001 48
3.1199999 0.898 -0.361 47
3.217 0.92799997 -0.31900001 25
3.3310001 0.96499997 -0.27700001 15
3.457 1.0039999 -0.23100001 15
3.5780001 1.043 -0.182 16
3.0109999 0.89300001 -0.40000001 49
3.1099999 0.92400002 -0.36199999 43
3.214 0.95700002 -0.322 15
3.3199999 0.991 -0.278 14
3.4449999 1.031 -0.233 14
3.575 1.074 -0.184 18
3.003 0.917 -0.40200001 49
3.102 0.949 -0.36399999 44
3.207 0.98400003 -0.324 15
3.3150001 1.0190001 -0.28 15
3.4419999 1.061 -0.235 15
3.5650001 1.103 -0.186 17
2.9909999 0.94099998 -0.403 47
3.0899999 0.97399998 -0.36500001 35
3.2030001 1.011 -0.32600001 15
3.3050001 1.046 -0.28200001 14
3.431 1.089 -0.237 14
3.5580001 1.133 -0.18799999 18
2.9860001 0.96700001 -0.405 58
3.082 1 -0.36700001 18
3.1989999 1.039 -0.32800001 17
3.3010001 1.075 -0.285 17
3.4260001 1.119 -0.23899999 19
3.55 1.1619999 -0.19 23
2.9719999 0.99000001 -0.40700001 58
3.0769999 1.026 -0.37 17
3.184 1.064 -0.33000001 18
3.2950001 1.103 -0.287 17
3.4189999 1.147 -0.242 17
3.5420001 1.192 -0.193 21
2.974 1.0190001 -0.41 56
3.0699999 1.052 -0.37200001 18
3.177 1.091 -0.33199999 19
3.283 1.1289999 -0.289 18
3.4059999 1.174 -0.244 17
3.5369999 1.222 -0.19499999 21
0 6.1440001 0 0
0 0 0 0
0 0 0 0
0 0 0 255
2.971 1.045 -0.41299999 25
3.0610001 1.0779999 -0.37400001 18
3.175 1.12 -0.33500001 17
3.276 1.1569999 -0.29100001 17
3.3970001 1.202 -0.24600001 18
3.527 1.251 -0.198 20
2.9649999 1.072 -0.41499999 24
3.056 1.105 -0.377 17
3.1600001 1.1440001 -0.33700001 18
3.267 1.184 -0.294 17
3.391 1.2309999 -0.249 19
3.516 1.28 -0.2 19
2.9530001 1.095 -0.417 21
3.046 1.13 -0.37900001 18
3.152 1.17 -0.33899999 18
3.2609999 1.212 -0.296 19
3.385 1.261 -0.25099999 19
3.5050001 1.308 -0.20200001 19
2.9460001 1.12 -0.419 20
3.039 1.156 -0.38100001 19
3.141 1.196 -0.34099999 20
3.247 1.237 -0.29800001 18
3.3740001 1.288 -0.25400001 17
3.4990001 1.3380001 -0.205 18
2.9349999 1.1440001 -0.421 20
3.036 1.184 -0.384 19
3.135 1.224 -0.34400001 20
3.2420001 1.266 -0.301 20
3.368 1.317 -0.257 17
3.487 1.367 -0.208 20
2.931 1.171 -0.42500001 20
3.0320001 1.212 -0.38699999 19
3.1289999 1.251 -0.347 18
3.234 1.294 -0.30399999 18
3.3529999 1.3430001 -0.259 17
3.4779999 1.395 -0.20999999 20
2.9189999 1.1950001 -0.42699999 22
3.01 1.232 -0.38800001 17
3.119 1.277 -0.34900001 19
3.2279999 1.322 -0.30700001 18
3.348 1.372 -0.26199999 18
3.4719999 1.426 -0.213 20
2.914 1.221 -0.43000001 21
3 1.256 -0.391 18
3.1110001 1.303 -0.352 20
3.2160001 1.347 -0.30899999 18
3.336 1.399 -0.264 17
3.4619999 1.454 -0.21600001 19
2.9030001 1.244 -0.43200001 22
3.0039999 1.2869999 -0.39500001 19
3.1029999 1.329 -0.354 20
3.2030001 1.373 -0.31099999 19
3.3299999 1.428 -0.26699999 15
3.451 1.482 -0.21799999 18
2.8970001 1.27 -0.435 24
2.994 1.312 -0.39700001 20
3.0899999 1.354 -0.35699999 18
3.194 1.399 -0.31400001 18
3.3150001 1.454 -0.26899999 18
3.441 1.511 -0.221 19
2.8870001 1.294 -0.43700001 21
2.9879999 1.3380001 -0.40000001 18
3.085 1.381 -0.36000001 18
3.1889999 1.428 -0.317 16
3.3099999 1.483 -0.27200001 17
3.431 1.539 -0.22400001 18
2.8789999 1.319 -0.44 23
2.9749999 1.362 -0.40200001 20
3.073 1.406 -0.36199999 19
3.1789999 1.454 -0.31900001 17
3.2969999 1.5089999 -0.27500001 16
3.4230001 1.568 -0.227 17
2.8670001 1.342 -0.442 20
2.97 1.388 -0.405 18
3.0699999 1.434 -0.36500001 17
3.1700001 1.48 -0.322 21
3.2920001 1.538 -0.278 14
3.418 1.598 -0.23 19
2.8610001 1.367 -0.44499999 22
2.9579999 1.4119999 -0.40799999 21
3.0550001 1.457 -0.36700001 17
3.1619999 1.507 -0.32499999 18
3.2869999 1.567 -0.28099999 16
3.408 1.626 -0.23199999 18
2.8570001 1.393 -0.44800001 23
2.9489999 1.436 -0.41 19
3.0510001 1.485 -0.37099999 18
3.1530001 1.534 -0.32800001 16
3.2809999 1.596 -0.28400001 16
3.398 1.654 -0.235 17
2.8410001 1.414 -0.44999999 24
2.941 1.462 -0.41299999 21
3.0420001 1.51 -0.373 21
3.1440001 1.5599999 -0.33000001 17
3.267 1.6210001 -0.28600001 16
3.388 1.682 -0.23800001 21
0 6.1440001 0 0
0 0 0 0
0 0 0 0
0 0 0 255
2.835 1.439 -0.45300001 24
2.931 1.485 -0.41499999 21
3.029 1.533 -0.375 20
3.1340001 1.586 -0.333 18
3.2579999 1.648 -0.289 17
3.3789999 1.711 -0.241 22
2.826 1.462 -0.45500001 25
2.9170001 1.507 -0.417 19
3.0179999 1.558 -0.37799999 19
3.128 1.613 -0.336 19
3.2479999 1.675 -0.29100001 17
3.3699999 1.738 -0.243 20
2.8150001 1.485 -0.458 22
2.9100001 1.5319999 -0.41999999 20
3.0120001 1.584 -0.38100001 19
3.1199999 1.6390001 -0.33899999 18
3.2409999 1.702 -0.294 16
3.358 1.765 -0.24600001 21
2.8099999 1.51 -0.461 23
2.901 1.556 -0.42300001 20
3.007 1.6109999 -0.384 18
3.1070001 1.663 -0.34099999 19
3.234 1.7309999 -0.29699999 16
3.352 1.794 -0.249 20
2.8 1.533 -0.463 21
2.8989999 1.584 -0.426 18
2.993 1.633 -0.38600001 22
3.098 1.689 -0.34299999 17
3.2260001 1.757 -0.30000001 17
3.339 1.819 -0.25099999 20
2.7909999 1.556 -0.465 23
2.885 1.605 -0.428 22
2.9860001 1.658 -0.38800001 19
3.099 1.719 -0.347 17
3.217 1.784 -0.30199999 17
3.332 1.848 -0.25299999 20
2.7809999 1.5779999 -0.46700001 24
2.881 1.631 -0.43099999 18
2.977 1.682 -0.391 20
3.085 1.7410001 -0.34799999 16
3.2079999 1.809 -0.30500001 16
3.323 1.875 -0.25600001 20
2.779 1.604 -0.47099999 22
2.865 1.65 -0.43200001 16
2.9719999 1.7079999 -0.39300001 18
3.076 1.766 -0.35100001 19
3.1960001 1.834 -0.30700001 16
3.313 1.901 -0.25799999 17
2.763 1.622 -0.472 21
2.862 1.676 -0.435 19
2.9630001 1.732 -0.396 16
3.0710001 1.793 -0.354 16
3.1900001 1.8609999 -0.30899999 16
3.309 1.9299999 -0.26100001 19
2.7620001 1.649 -0.47499999 21
2.8570001 1.701 -0.43799999 19
2.957 1.758 -0.398 19
3.0580001 1.8150001 -0.35499999 16
3.181 1.886 -0.31099999 15
3.2980001 1.955 -0.26300001 19
2.7490001 1.668 -0.477 21
2.8469999 1.723 -0.44 20
2.95 1.7819999 -0.40099999 22
3.0510001 1.84 -0.35800001 16
3.174 1.913 -0.31400001 16
3.29 1.982 -0.26499999 19
2.7420001 1.6900001 -0.479 19
2.8380001 1.745 -0.442 19
2.9400001 1.804 -0.40200001 20
3.0439999 1.865 -0.36000001 16
3.1670001 1.939 -0.31600001 16
3.283 2.0090001 -0.26699999 19
2.734 1.712 -0.48100001 20
2.8269999 1.765 -0.44299999 19
2.9300001 1.826 -0.40400001 19
3.033 1.887 -0.361 16
3.1619999 1.965 -0.31799999 16
3.279 2.0380001 -0.26899999 19
2.723 1.732 -0.48300001 24
2.8199999 1.788 -0.44499999 19
2.9230001 1.849 -0.40599999 17
3.0280001 1.913 -0.36399999 17
3.151 1.988 -0.31999999 15
3.2720001 2.0639999 -0.271 18
2.7130001 1.751 -0.484 24
2.8110001 1.809 -0.447 21
2.914 1.8710001 -0.40799999 19
3.0190001 1.9349999 -0.36500001 18
3.148 2.0150001 -0.322 17
3.26 2.086 -0.273 21
2.7119999 1.776 -0.48699999 22
2.812 1.836 -0.44999999 19
2.9100001 1.896 -0.41 17
3.0139999 1.96 -0.368 18
3.135 2.036 -0.32300001 16
3.25 2.109 -0.27399999 21
0 6.1440001 0 0
0 0 0 0
0 0 0 0
0 0 0 255
2.7 1.794 -0.48800001 28
2.7950001 1.851 -0.44999999 21
2.8989999 1.915 -0.41100001 21
2.9979999 1.977 -0.368 19
3.122 2.056 -0.324 14
3.2420001 2.1340001 -0.27599999 19
2.6889999 1.811 -0.48899999 22
2.7880001 1.872 -0.45199999 20
2.891 1.9349999 -0.412 35
2.99 1.998 -0.36899999 29
3.122 2.0829999 -0.32600001 17
3.247 2.1659999 -0.278 25
2.6860001 1.8329999 -0.491 34
2.783 1.893 -0.454 24
2.885 1.9579999 -0.414 29
2.994 2.027 -0.37200001 20
3.1240001 2.112 -0.329 19
3.2360001 2.187 -0.27900001 20
2.674 1.849 -0.491 23
2.78 1.916 -0.456 21
2.878 1.978 -0.41499999 20
2.994 2.053 -0.37400001 19
3.1099999 2.1300001 -0.329 17
3.2360001 2.2149999 -0.28099999 22
2.6700001 1.869 -0.493 22
2.7809999 1.9400001 -0.458 36
2.875 2 -0.417 21
2.9849999 2.072 -0.375 20
3.1059999 2.1530001 -0.33000001 17
3.2260001 2.2349999 -0.28099999 20
2.668 1.89 -0.495 28
2.7709999 1.957 -0.458 28
2.8699999 2.02 -0.41800001 20
2.99 2.0999999 -0.377 20
3.105 2.178 -0.33199999 19
3.2249999 2.2609999 -0.28299999 16
2.6670001 1.9119999 -0.49700001 32
2.7650001 1.975 -0.45899999 20
2.8699999 2.0439999 -0.41999999 21
2.9820001 2.1199999 -0.37799999 17
3.0910001 2.194 -0.33199999 16
3.221 2.2839999 -0.28400001 17
2.6689999 1.9349999 -0.49900001 25
2.766 1.998 -0.461 19
2.8629999 2.062 -0.41999999 21
2.971 2.135 -0.37799999 16
3.0869999 2.2149999 -0.33199999 15
3.2130001 2.303 -0.28400001 17
2.6589999 1.948 -0.49900001 19
2.7690001 2.0209999 -0.463 18
2.865 2.085 -0.42199999 19
2.967 2.155 -0.37900001 16
3.0899999 2.2409999 -0.33399999 15
3.2079999 2.325 -0.28400001 17
2.658 1.967 -0.5 20
2.7579999 2.0339999 -0.463 17
2.8629999 2.1059999 -0.42300001 20
2.97 2.1789999 -0.38 17
3.085 2.26 -0.33399999 16
3.2060001 2.3469999 -0.285 19
2.6559999 1.985 -0.50099999 22
2.757 2.053 -0.46399999 20
2.862 2.125 -0.42399999 18
2.971 2.201 -0.38100001 17
3.0880001 2.2839999 -0.33500001 17
3.2019999 2.3659999 -0.285 17
2.654 2.0020001 -0.50199997 23
2.756 2.072 -0.465 18
2.858 2.142 -0.42399999 19
2.9619999 2.2149999 -0.38100001 16
3.0880001 2.3050001 -0.336 16
3.2030001 2.3889999 -0.285 18
2.6530001 2.02 -0.50300002 18
2.753 2.0880001 -0.465 18
2.8570001 2.1600001 -0.42500001 20
2.9530001 2.2279999 -0.38 15
3.0799999 2.3199999 -0.33500001 14
3.201 2.4089999 -0.285 20
2.648 2.0320001 -0.50199997 20
2.7449999 2.099 -0.46399999 17
2.8570001 2.178 -0.42500001 17
2.9649999 2.256 -0.382 17
3.0810001 2.3399999 -0.33500001 15
3.2030001 2.431 -0.285 16
2.6459999 2.0469999 -0.50300002 23
2.7479999 2.118 -0.465 16
2.852 2.191 -0.42500001 16
2.9530001 2.2639999 -0.38 15
3.0769999 2.355 -0.33500001 15
3.201 2.447 -0.285 17
2.645 2.0610001 -0.50199997 23
2.7449999 2.131 -0.465 16
2.849 2.2049999 -0.42399999 15
2.9560001 2.283 -0.38 17
3.0780001 2.3729999 -0.33500001 15
3.2019999 2.4660001 -0.285 17
0 6.1440001 0 0
0 0 0 0
0 0 0 0
0 0 0 255
2.6570001 2.0840001 -0.505 21
2.744 2.1440001 -0.465 15
2.846 2.2179999 -0.42399999 16
2.954 2.2969999 -0.38 16
3.079 2.3900001 -0.33399999 15
3.204 2.484 -0.28400001 17
2.6500001 2.092 -0.50400001 15
2.74 2.155 -0.46399999 14
2.848 2.233 -0.42399999 15
2.9519999 2.309 -0.37900001 14
3.079 2.404 -0.33399999 15
3.2019999 2.4979999 -0.28299999 15
2.645 2.0999999 -0.50199997 17
2.7460001 2.1719999 -0.465 17
2.846 2.244 -0.42300001 15
2.9560001 2.325 -0.37900001 14
3.0799999 2.4189999 -0.333 15
3.2019999 2.513 -0.28200001 15
2.6440001 2.1099999 -0.50199997 19
2.744 2.181 -0.46399999 15
2.8510001 2.2590001 -0.42300001 16
2.9590001 2.3399999 -0.37900001 14
3.0829999 2.434 -0.33199999 15
3.2 2.5239999 -0.28099999 19
2.645 2.1199999 -0.50099999 17
2.7449999 2.1919999 -0.463 15
2.855 2.273 -0.42300001 17
2.9590001 2.3499999 -0.377 16
3.0810001 2.4430001 -0.331 15
3.2090001 2.5420001 -0.28 17
2.6459999 2.1289999 -0.50099999 20
2.75 2.204 -0.463 16
2.8570001 2.283 -0.42199999 17
2.9649999 2.3640001 -0.377 14
3.0869999 2.4579999 -0.33000001 18
3.2079999 2.552 -0.27900001 17
2.654 2.1429999 -0.50099999 18
2.747 2.2090001 -0.461 13
2.859 2.293 -0.421 15
2.97 2.3759999 -0.37599999 14
3.0899999 2.4690001 -0.329 15
3.2130001 2.5650001 -0.278 18
2.6530001 2.148 -0.5 18
2.753 2.22 -0.461 15
2.858 2.2980001 -0.419 15
2.97 2.3829999 -0.375 15
3.0910001 2.477 -0.32800001 16
3.2149999 2.5739999 -0.27599999 20
2.652 2.152 -0.498 16
2.757 2.2290001 -0.46000001 16
2.8640001 2.3080001 -0.419 18
2.971 2.3900001 -0.373 14
3.095 2.4860001 -0.32600001 15
3.227 2.5899999 -0.27500001 17
2.6570001 2.1600001 -0.49700001 15
2.7590001 2.234 -0.45899999 15
2.862 2.3110001 -0.41600001 17
2.9779999 2.3989999 -0.37200001 16
3.0940001 2.4890001 -0.324 17
3.2260001 2.5929999 -0.273 18
2.665 2.168 -0.49700001 16
2.7590001 2.237 -0.45699999 14
2.8710001 2.3199999 -0.41600001 16
2.98 2.4030001 -0.37099999 16
3.098 2.4949999 -0.32300001 16
3.224 2.595 -0.271 19
2.6689999 2.1719999 -0.49599999 17
2.7639999 2.2409999 -0.456 15
2.8759999 2.325 -0.414 17
2.9820001 2.4059999 -0.36899999 15
3.1059999 2.503 -0.32100001 15
3.2379999 2.608 -0.27000001 19
2.6689999 2.1719999 -0.49399999 16
2.7639999 2.2409999 -0.454 15
2.8740001 2.3239999 -0.412 16
2.984 2.4070001 -0.36700001 15
3.1099999 2.506 -0.31900001 15
3.243 2.6110001 -0.26800001 19
2.6719999 2.1719999 -0.49200001 17
2.7709999 2.2449999 -0.45199999 15
2.8789999 2.326 -0.41100001 16
2.9860001 2.4070001 -0.36500001 16
3.109 2.503 -0.317 15
3.2379999 2.6059999 -0.26499999 20
2.675 2.1719999 -0.49000001 16
2.7780001 2.247 -0.45100001 15
2.881 2.3239999 -0.40799999 16
2.9949999 2.411 -0.36300001 16
3.1140001 2.5039999 -0.315 15
3.2479999 2.6099999 -0.26300001 19
2.6860001 2.177 -0.49000001 18
2.7820001 2.247 -0.449 16
2.8900001 2.3269999 -0.40700001 16
3.0020001 2.4130001 -0.36199999 15
3.125 2.5079999 -0.31299999 15
3.257 2.6129999 -0.26100001 19
0 6.1440001 0 0
0 0 0 0
0 0 0 0
0 0 0 255
2.6830001 2.1689999 -0.48699999 15
2.7820001 2.2409999 -0.447 15
2.8929999 2.3239999 -0.405 17
3.0039999 2.408 -0.36000001 16
3.1300001 2.506 -0.31099999 16
3.2590001 2.608 -0.259 21
2.691 2.168 -0.486 17
2.7939999 2.243 -0.44600001 14
2.898 2.3199999 -0.403 15
3.0139999 2.408 -0.35800001 13
3.1270001 2.4960001 -0.308 16
3.2639999 2.605 -0.257 21
2.6930001 2.1619999 -0.48300001 16
2.7950001 2.2360001 -0.44400001 14
2.9059999 2.3180001 -0.40200001 15
3.016 2.402 -0.35600001 14
3.142 2.4990001 -0.30700001 16
3.2739999 2.6029999 -0.255 18
2.7060001 2.1619999 -0.48300001 18
2.799 2.2290001 -0.442 14
2.9089999 2.3110001 -0.39899999 16
3.0250001 2.398 -0.354 14
3.1429999 2.49 -0.30500001 16
3.28 2.5969999 -0.252 18
2.7079999 2.154 -0.47999999 18
2.8010001 2.22 -0.43900001 15
2.9170001 2.306 -0.39700001 15
3.0309999 2.392 -0.352 15
3.158 2.4890001 -0.303 15
3.2880001 2.592 -0.25 23
2.7079999 2.142 -0.47799999 17
2.813 2.217 -0.43799999 15
2.924 2.299 -0.396 15
3.0350001 2.3829999 -0.34999999 14
3.1589999 2.4779999 -0.301 15
3.286 2.576 -0.248 20
2.7130001 2.1329999 -0.47499999 15
2.8150001 2.2060001 -0.43599999 15
2.9289999 2.29 -0.39399999 16
3.039 2.3710001 -0.347 15
3.168 2.47 -0.29899999 14
3.2980001 2.5699999 -0.24600001 17
2.7249999 2.1289999 -0.47499999 16
2.8239999 2.1989999 -0.43399999 15
2.938 2.2820001 -0.39199999 17
3.043 2.3599999 -0.345 15
3.1700001 2.4549999 -0.296 14
3.3050001 2.559 -0.244 17
2.7290001 2.1170001 -0.47299999 15
2.8239999 2.184 -0.43200001 14
2.941 2.2679999 -0.38999999 16
3.0539999 2.352 -0.34400001 14
3.178 2.4449999 -0.29499999 16
3.309 2.5450001 -0.242 21
2.7360001 2.1059999 -0.47099999 18
2.8399999 2.1800001 -0.43099999 17
2.9430001 2.253 -0.38699999 15
3.0569999 2.3369999 -0.34200001 15
3.178 2.427 -0.292 15
3.309 2.526 -0.23899999 17
2.743 2.095 -0.46900001 15
2.8399999 2.1619999 -0.428 15
2.9560001 2.2449999 -0.38699999 16
3.062 2.322 -0.33899999 14
3.187 2.415 -0.29100001 15
3.3210001 2.5150001 -0.23800001 17
2.75 2.082 -0.46799999 16
2.8440001 2.1459999 -0.426 15
2.951 2.2219999 -0.38299999 14
3.063 2.303 -0.33700001 15
3.1919999 2.3970001 -0.28799999 16
3.329 2.5 -0.236 18
2.756 2.0669999 -0.46599999 15
2.852 2.1340001 -0.42500001 14
2.964 2.2119999 -0.382 18
3.072 2.289 -0.336 15
3.1960001 2.3800001 -0.287 15
3.3239999 2.474 -0.233 18
2.7639999 2.0539999 -0.46399999 16
2.8599999 2.119 -0.42300001 16
2.9690001 2.194 -0.38100001 17
3.0810001 2.2739999 -0.33399999 18
3.2060001 2.365 -0.285 15
3.3299999 2.4560001 -0.23199999 18
2.7690001 2.0369999 -0.463 17
2.8610001 2.099 -0.421 19
2.9760001 2.178 -0.37900001 16
3.082 2.2520001 -0.33199999 16
3.21 2.3440001 -0.28400001 17
3.336 2.4360001 -0.23 20
2.773 2.0179999 -0.461 19
2.8740001 2.086 -0.421 16
2.9860001 2.1630001 -0.37799999 17
3.0869999 2.233 -0.331 15
3.2119999 2.3210001 -0.28200001 15
3.345 2.4170001 -0.229 18
0 6.1440001 0 0
0 0 0 0
0 0 0 0
0 0 0 255
2.7739999 1.998 -0.458 18
2.878 2.066 -0.419 18
2.9849999 2.1389999 -0.37599999 17
3.0969999 2.2160001 -0.33000001 18
3.22 2.302 -0.28099999 16
3.352 2.395 -0.228 21
2.78 1.979 -0.45699999 16
2.8759999 2.0420001 -0.41600001 16
2.997 2.1229999 -0.375 18
3.098 2.191 -0.32800001 16
3.2309999 2.283 -0.28 17
3.3529999 2.369 -0.226 22
2.786 1.96 -0.456 16
2.8859999 2.0250001 -0.41600001 17
2.9979999 2.099 -0.373 19
3.1159999 2.178 -0.32800001 19
3.2309999 2.256 -0.278 16
3.3610001 2.3469999 -0.22499999 23
2.7809999 1.933 -0.45300001 17
2.891 2.003 -0.414 16
2.997 2.072 -0.37099999 18
3.108 2.1459999 -0.32499999 16
3.24 2.2360001 -0.27700001 19
3.3640001 2.3210001 -0.22400001 19
2.796 1.919 -0.45300001 19
2.8970001 1.982 -0.41299999 18
3.006 2.052 -0.37099999 18
3.1140001 2.1229999 -0.324 17
3.2420001 2.2090001 -0.27599999 17
3.3710001 2.296 -0.223 21
2.799 1.896 -0.45199999 18
2.9030001 1.961 -0.412 16
3.01 2.029 -0.36899999 17
3.122 2.1010001 -0.324 17
3.247 2.1830001 -0.27500001 17
3.3740001 2.2690001 -0.222 19
2.803 1.873 -0.44999999 17
2.9059999 1.937 -0.41100001 15
3.016 2.006 -0.36899999 19
3.1289999 2.0780001 -0.32300001 18
3.25 2.1559999 -0.27399999 18
3.3770001 2.24 -0.222 20
2.8099999 1.852 -0.44999999 18
2.9089999 1.9119999 -0.41 16
3.017 1.978 -0.36700001 19
3.131 2.05 -0.322 19
3.2509999 2.1270001 -0.273 17
3.3789999 2.21 -0.221 20
2.8139999 1.8279999 -0.44800001 17
2.9100001 1.886 -0.40799999 16
3.0209999 1.9529999 -0.36700001 17
3.1340001 2.023 -0.32100001 16
3.26 2.102 -0.273 18
3.3859999 2.1830001 -0.221 20
2.8169999 1.804 -0.44800001 16
2.918 1.864 -0.40799999 16
3.023 1.926 -0.366 18
3.135 1.994 -0.32100001 15
3.263 2.0739999 -0.273 18
3.382 2.1489999 -0.22 17
2.819 1.778 -0.44600001 18
2.9219999 1.8380001 -0.40700001 18
3.029 1.901 -0.36500001 18
3.1389999 1.967 -0.31999999 15
3.267 2.0450001 -0.273 19
3.392 2.1229999 -0.221 21
2.823 1.7539999 -0.44499999 18
2.925 1.812 -0.40700001 18
3.0309999 1.874 -0.36500001 16
3.141 1.939 -0.31999999 16
3.2709999 2.017 -0.273 17
3.4000001 2.095 -0.221 22
2.829 1.73 -0.44499999 18
2.9289999 1.786 -0.40599999 17
3.0320001 1.845 -0.36399999 20
3.145 1.91 -0.31900001 17
3.2690001 1.984 -0.27200001 18
3.3959999 2.0599999 -0.221 25
2.829 1.702 -0.44400001 23
2.9300001 1.758 -0.405 18
3.0350001 1.817 -0.36399999 17
3.1459999 1.881 -0.31900001 16
3.2690001 1.952 -0.27200001 18
3.4000001 2.029 -0.221 24
2.832 1.676 -0.44400001 16
2.9260001 1.728 -0.40400001 17
3.0380001 1.789 -0.36300001 18
3.1489999 1.852 -0.31900001 17
3.27 1.92 -0.27200001 18
3.395 1.993 -0.221 24
2.8329999 1.649 -0.44299999 18
2.9360001 1.704 -0.405 17
3.0409999 1.761 -0.36399999 16
3.1489999 1.8200001 -0.31900001 17
3.2709999 1.888 -0.27200001 19
3.395 1.959 -0.221 22
0 6.1440001 0 0
0 0 0 0
0 0 0 0
0 0 0 255
2.839 1.625 -0.44299999 18
2.9389999 1.676 -0.405 17
3.043 1.732 -0.36300001 20
3.1559999 1.793 -0.31999999 17
3.276 1.859 -0.273 19
3.4030001 1.9299999 -0.222 22
2.836 1.594 -0.442 20
2.947 1.652 -0.405 18
3.04 1.7 -0.36300001 18
3.155 1.761 -0.31999999 16
3.2780001 1.8279999 -0.273 21
3.3989999 1.8940001 -0.223 22
2.8440001 1.571 -0.44299999 19
2.9430001 1.62 -0.40400001 17
3.0420001 1.671 -0.36300001 17
3.1530001 1.729 -0.31999999 17
3.2820001 1.7970001 -0.27399999 21
3.398 1.86 -0.223 23
2.8399999 1.54 -0.442 20
2.9449999 1.592 -0.40400001 18
3.0409999 1.64 -0.36300001 19
3.1559999 1.699 -0.31999999 17
3.283 1.765 -0.27500001 18
3.398 1.825 -0.22400001 23
2.849 1.516 -0.44299999 20
2.947 1.564 -0.405 18
3.0469999 1.613 -0.36399999 17
3.1559999 1.668 -0.31999999 16
3.2809999 1.732 -0.27500001 19
3.3959999 1.79 -0.22499999 27
2.848 1.488 -0.442 22
2.9449999 1.534 -0.40400001 17
3.0510001 1.585 -0.36399999 17
3.158 1.637 -0.32100001 18
3.2820001 1.699 -0.27599999 18
3.4000001 1.758 -0.226 23
2.8510001 1.461 -0.44299999 20
2.948 1.506 -0.405 21
3.053 1.556 -0.36500001 17
3.152 1.603 -0.32100001 18
3.279 1.665 -0.27599999 23
3.402 1.726 -0.227 25
2.855 1.4349999 -0.44299999 21
2.948 1.477 -0.405 19
3.05 1.524 -0.36500001 19
3.1570001 1.574 -0.322 19
3.2839999 1.635 -0.278 20
3.3989999 1.6900001 -0.228 24
2.8540001 1.406 -0.44299999 20
2.9489999 1.448 -0.405 18
3.049 1.493 -0.36500001 18
3.1570001 1.5420001 -0.32300001 17
3.279 1.6 -0.278 20
3.401 1.6569999 -0.23 25
2.8529999 1.377 -0.44299999 20
2.9530001 1.421 -0.40599999 18
3.0469999 1.462 -0.36500001 17
3.154 1.51 -0.32300001 19
3.2750001 1.5650001 -0.27900001 19
3.398 1.6210001 -0.23100001 25
2.8529999 1.348 -0.44299999 19
2.947 1.388 -0.40599999 17
3.052 1.434 -0.36700001 16
3.151 1.476 -0.324 16
3.27 1.53 -0.28 15
3.3970001 1.587 -0.23199999 21
2.859 1.323 -0.44400001 15
2.95 1.36 -0.40700001 16
3.0550001 1.404 -0.368 17
3.1589999 1.449 -0.32600001 16
3.2739999 1.499 -0.28099999 18
3.3900001 1.55 -0.233 21
2.8559999 1.293 -0.44400001 17
2.95 1.331 -0.40700001 16
3.052 1.373 -0.368 17
3.158 1.4170001 -0.32600001 18
3.2739999 1.466 -0.28200001 17
3.3940001 1.518 -0.235 21
2.8629999 1.268 -0.44499999 16
2.947 1.301 -0.40700001 16
3.0569999 1.345 -0.37 18
3.152 1.383 -0.32699999 17
3.27 1.432 -0.28299999 18
3.392 1.483 -0.236 20
2.859 1.238 -0.44499999 16
2.9519999 1.273 -0.40799999 15
3.0510001 1.312 -0.36899999 16
3.154 1.353 -0.32800001 18
3.2720001 1.4 -0.285 19
3.3870001 1.447 -0.237 22
2.8610001 1.21 -0.44600001 18
2.9519999 1.244 -0.40900001 15
3.04 1.278 -0.36899999 16
3.155 1.322 -0.329 19
3.263 1.364 -0.285 19
3.3889999 1.415 -0.23899999 21
0 6.1440001 0 0
0 0 0 0
0 0 0 0
0 0 0 255
2.8610001 1.183 -0.447 19
2.947 1.214 -0.40900001 17
3.0439999 1.249 -0.37 17
3.1530001 1.291 -0.33000001 17
3.266 1.3329999 -0.287 19
3.385 1.38 -0.241 21
2.8529999 1.151 -0.44600001 18
2.951 1.186 -0.41 15
3.049 1.221 -0.37200001 16
3.1530001 1.2589999 -0.331 17
3.266 1.301 -0.28799999 19
3.3840001 1.346 -0.242 21
2.8599999 1.126 -0.447 18
2.951 1.1569999 -0.41100001 16
3.043 1.189 -0.37200001 16
3.151 1.228 -0.33199999 18
3.263 1.268 -0.289 19
3.381 1.311 -0.244 24
2.862 1.099 -0.44800001 18
2.9549999 1.13 -0.412 17
3.0469999 1.1619999 -0.37400001 16
3.1459999 1.196 -0.333 17
3.263 1.237 -0.29100001 20
3.3789999 1.278 -0.245 24
2.858 1.0700001 -0.44800001 46
2.9530001 1.101 -0.41299999 17
3.0439999 1.131 -0.375 16
3.1440001 1.165 -0.33399999 16
3.2639999 1.205 -0.292 23
3.3770001 1.244 -0.24699999 22
2.852 1.041 -0.44800001 50
2.96 1.076 -0.41499999 17
3.043 1.102 -0.375 15
3.1459999 1.135 -0.336 16
3.2579999 1.1720001 -0.29300001 19
3.3699999 1.209 -0.248 26
2.8610001 1.017 -0.44999999 52
2.9460001 1.0420001 -0.414 28
3.0420001 1.072 -0.37599999 16
3.1459999 1.105 -0.33700001 16
3.2579999 1.141 -0.29499999 19
3.3699999 1.177 -0.25 23
2.8510001 0.986 -0.449 48
2.954 1.017 -0.41600001 40
3.046 1.045 -0.37799999 16
3.1440001 1.074 -0.338 15
3.2590001 1.11 -0.296 18
3.365 1.1440001 -0.25099999 23
2.8529999 0.95999998 -0.45100001 49
2.951 0.98900002 -0.41600001 41
3.0380001 1.013 -0.37799999 16
3.1459999 1.045 -0.33899999 16
3.253 1.077 -0.29699999 21
3.368 1.112 -0.25299999 22
2.8529999 0.93300003 -0.45100001 51
2.947 0.95899999 -0.417 39
3.0469999 0.98699999 -0.38 45
3.145 1.015 -0.34099999 17
3.256 1.0470001 -0.29899999 21
3.3640001 1.079 -0.25400001 22
2.8659999 0.91000003 -0.454 21
2.95 0.93300003 -0.41800001 42
3.0469999 0.95899999 -0.38100001 47
3.142 0.98500001 -0.34099999 14
3.25 1.015 -0.30000001 17
3.365 1.048 -0.25600001 20
2.8599999 0.88200003 -0.454 18
2.9530001 0.90600002 -0.419 41
3.043 0.92900002 -0.382 44
3.1359999 0.954 -0.34200001 35
3.2539999 0.986 -0.30199999 18
3.3599999 1.015 -0.257 24
2.8540001 0.85299999 -0.454 16
2.954 0.87900001 -0.421 22
3.0450001 0.90100002 -0.38299999 41
3.141 0.926 -0.34400001 38
3.2449999 0.95300001 -0.30199999 14
3.368 0.98500001 -0.25999999 18
2.862 0.829 -0.456 13
2.9489999 0.85000002 -0.421 14
3.0469999 0.87400001 -0.38499999 40
3.142 0.89700001 -0.345 40
3.243 0.92199999 -0.30399999 22
3.3599999 0.95200002 -0.26100001 16
2.8670001 0.80400002 -0.45699999 15
2.9530001 0.824 -0.42199999 14
3.0469999 0.84600002 -0.38600001 28
3.1329999 0.86500001 -0.345 36
3.2490001 0.89399999 -0.30599999 41
3.362 0.921 -0.26199999 18
2.865 0.77700001 -0.458 14
2.95 0.796 -0.42300001 13
3.0409999 0.81599998 -0.38600001 13
3.1389999 0.838 -0.347 36
3.24 0.861 -0.30599999 47
3.3570001 0.88800001 -0.26300001 18
0 6.1440001 0 0
0 0 0 0
0 0 0 0
0 0 0 255
2.8640001 0.75 -0.45899999 13
2.95 0.76800001 -0.42399999 13
3.0369999 0.787 -0.38699999 13
3.1389999 0.80900002 -0.34900001 36
3.243 0.83200002 -0.308 47
3.3540001 0.85600001 -0.26499999 18
2.8629999 0.72399998 -0.45899999 12
2.951 0.74199998 -0.42500001 12
3.04 0.75999999 -0.38800001 13
3.1400001 0.77999997 -0.34999999 14
3.2449999 0.80299997 -0.30899999 45
3.3499999 0.824 -0.266 17
2.865 0.69800001 -0.46000001 13
2.954 0.71499997 -0.426 12
3.043 0.73199999 -0.389 14
3.141 0.75199997 -0.35100001 12
3.2379999 0.77100003 -0.31 36
3.3510001 0.79400003 -0.26699999 17
2.8610001 0.671 -0.46000001 16
2.948 0.68699998 -0.426 13
3.04 0.704 -0.38999999 13
3.1340001 0.72100002 -0.35100001 13
3.2390001 0.741 -0.31099999 16
3.3540001 0.764 -0.26899999 18
2.8629999 0.64499998 -0.461 14
2.948 0.66000003 -0.42699999 14
3.0380001 0.676 -0.391 11
3.1359999 0.69300002 -0.35299999 15
3.2390001 0.71200001 -0.31299999 15
3.3499999 0.73199999 -0.27000001 19
2.858 0.61900002 -0.461 14
2.95 0.634 -0.428 13
3.04 0.64899999 -0.39199999 13
3.1300001 0.66399997 -0.35299999 12
3.2379999 0.68199998 -0.31400001 16
3.346 0.70099998 -0.271 22
2.8599999 0.59299999 -0.46200001 14
2.951 0.60699999 -0.42899999 13
3.0380001 0.62099999 -0.39199999 10
3.1259999 0.63499999 -0.354 14
3.2379999 0.653 -0.315 15
3.349 0.671 -0.273 19
2.8610001 0.56800002 -0.463 15
2.954 0.58200002 -0.43000001 13
3.0439999 0.59500003 -0.39399999 10
3.131 0.60799998 -0.35499999 11
3.2349999 0.62400001 -0.31600001 18
3.346 0.64099997 -0.27399999 20
2.8629999 0.54299998 -0.46399999 15
2.9560001 0.55599999 -0.43099999 12
3.036 0.56599998 -0.39399999 13
3.1329999 0.57999998 -0.35600001 12
3.2390001 0.59500003 -0.317 16
3.3410001 0.61000001 -0.27399999 18
2.8610001 0.51700002 -0.46399999 11
2.951 0.52899998 -0.43099999 10
3.0350001 0.53899997 -0.39500001 11
3.131 0.55199999 -0.35699999 13
3.2390001 0.56699997 -0.31799999 15
3.342 0.58099997 -0.27599999 19
2.8559999 0.491 -0.46399999 14
2.9460001 0.50199997 -0.43099999 13
3.039 0.51300001 -0.396 11
3.131 0.52399999 -0.35800001 14
3.2390001 0.53799999 -0.31900001 16
3.3440001 0.55199999 -0.27700001 18
2.858 0.46599999 -0.465 15
2.948 0.47600001 -0.43200001 12
3.0369999 0.486 -0.396 11
3.128 0.49599999 -0.35800001 12
3.2409999 0.50999999 -0.31999999 15
3.348 0.52200001 -0.278 20
2.858 0.44100001 -0.46599999 14
2.95 0.45100001 -0.433 13
3.043 0.461 -0.398 13
3.1289999 0.46900001 -0.359 12
3.2420001 0.48199999 -0.32100001 15
3.3499999 0.493 -0.27900001 19
2.862 0.417 -0.46700001 17
2.9489999 0.42500001 -0.433 11
3.0439999 0.43399999 -0.39899999 10
3.1259999 0.442 -0.36000001 13
3.237 0.45300001 -0.322 15
3.3469999 0.46399999 -0.28 19
2.8599999 0.39199999 -0.46700001 15
2.9519999 0.40000001 -0.43399999 11
3.043 0.40799999 -0.39899999 10
3.1270001 0.414 -0.361 12
3.2420001 0.42500001 -0.32300001 13
3.346 0.43399999 -0.28099999 20
2.8570001 0.36700001 -0.46700001 15
2.9489999 0.37400001 -0.435 13
3.0439999 0.38100001 -0.40000001 10
3.131 0.38800001 -0.36199999 12
3.2360001 0.396 -0.32300001 14
3.346 0.405 -0.28200001 18
0 6.1440001 0 0
0 0 0 0
0 0 0 0
0 0 0 255
2.8440001 0.34099999 -0.465 18
2.95 0.34900001 -0.435 13
3.04 0.35499999 -0.40000001 11
3.132 0.361 -0.36300001 14
3.24 0.36899999 -0.324 15
3.346 0.37599999 -0.28200001 22
2.852 0.317 -0.46700001 15
2.9360001 0.322 -0.43399999 13
3.043 0.329 -0.40099999 12
3.1289999 0.33399999 -0.36300001 11
3.24 0.34099999 -0.32499999 13
3.349 0.34799999 -0.28299999 19
2.8629999 0.294 -0.46900001 10
2.951 0.29800001 -0.43599999 10
3.0350001 0.30199999 -0.40000001 15
3.1300001 0.30700001 -0.36300001 12
3.2449999 0.31400001 -0.32600001 14
3.3510001 0.31999999 -0.28400001 19
2.8610001 0.26899999 -0.46900001 14
2.9519999 0.273 -0.43700001 9
3.046 0.27700001 -0.40200001 9
3.1370001 0.28099999 -0.36500001 10
3.2379999 0.28600001 -0.32600001 15
3.3529999 0.29100001 -0.285 17
2.8629999 0.245 -0.47 13
2.951 0.248 -0.43700001 10
3.0450001 0.25099999 -0.403 10
3.1340001 0.25400001 -0.36500001 11
3.2409999 0.25799999 -0.32699999 15
3.3540001 0.26300001 -0.28600001 17
2.8670001 0.221 -0.47099999 14
2.9549999 0.223 -0.43799999 11
3.0480001 0.226 -0.40400001 10
3.132 0.228 -0.36500001 12
3.25 0.23100001 -0.32800001 14
3.3529999 0.234 -0.28600001 17
2.8659999 0.197 -0.47099999 14
2.957 0.199 -0.43900001 11
3.0450001 0.2 -0.40400001 10
3.1329999 0.20100001 -0.366 14
3.2460001 0.204 -0.32800001 12
3.3559999 0.206 -0.287 16
2.8610001 0.17299999 -0.47099999 12
2.9560001 0.17399999 -0.43900001 11
3.0539999 0.175 -0.405 11
3.1359999 0.175 -0.36700001 11
3.2490001 0.177 -0.329 13
3.3570001 0.178 -0.28799999 17
2.8670001 0.149 -0.472 13
2.957 0.149 -0.44 10
3.0480001 0.149 -0.405 11
3.132 0.148 -0.366 11
3.2460001 0.149 -0.329 13
3.358 0.149 -0.28799999 16
2.869 0.125 -0.47299999 11
2.9590001 0.125 -0.44 10
3.049 0.124 -0.405 10
3.138 0.123 -0.368 11
3.2479999 0.122 -0.33000001 12
3.3570001 0.121 -0.28799999 15
2.8710001 0.101 -0.47299999 14
2.96 0.1 -0.44100001 9
3.05 0.097999997 -0.40599999 11
3.135 0.096000001 -0.368 12
3.2490001 0.094999999 -0.33000001 12
3.358 0.093000002 -0.289 14
2.8670001 0.077 -0.47299999 14
2.9560001 0.075000003 -0.44 11
3.0510001 0.072999999 -0.40599999 10
3.138 0.07 -0.368 11
3.2509999 0.068000004 -0.331 14
3.3540001 0.064999998 -0.289 15
2.8710001 0.054000001 -0.47400001 12
2.957 0.050999999 -0.44100001 12
3.0510001 0.048 -0.40700001 11
3.1400001 0.044 -0.36899999 12
3.2520001 0.041000001 -0.331 14
3.355 0.037999999 -0.289 18
2.869 0.029999999 -0.47400001 12
2.964 0.027000001 -0.442 11
3.0510001 0.023 -0.40700001 12
3.1389999 0.018999999 -0.36899999 12
3.2509999 0.015 -0.331 14
3.358 0.0099999998 -0.28999999 17
2.869 0.0070000002 -0.47400001 12
2.9660001 0.003 -0.44299999 12
3.0580001 -0.001 -0.40799999 11
3.1470001 -0.0060000001 -0.37 13
3.253 -0.011 -0.33199999 17
3.358 -0.016000001 -0.28999999 18
2.875 -0.016000001 -0.47600001 12
2.967 -0.021 -0.44299999 10
3.056 -0.026000001 -0.40799999 11
3.1400001 -0.030999999 -0.37 11
3.253 -0.037 -0.33199999 14
3.3670001 -0.044 -0.29100001 16
0 6.1440001 0 0
0 0 0 0
0 0 0 0
0 0 0 255
2.8740001 -0.039000001 -0.47600001 12
2.9649999 -0.045000002 -0.44299999 12
3.059 -0.050999999 -0.40900001 11
3.141 -0.057 -0.37 12
3.2520001 -0.064000003 -0.33199999 16
3.362 -0.071000002 -0.29100001 19
2.8770001 -0.061999999 -0.47600001 13
2.967 -0.068000004 -0.44400001 11
3.0599999 -0.075000003 -0.40900001 12
3.148 -0.082000002 -0.37099999 14
3.257 -0.090000004 -0.333 15
3.365 -0.097999997 -0.292 17
2.878 -0.085000001 -0.477 13
2.967 -0.092 -0.44400001 12
3.062 -0.1 -0.41 12
3.1500001 -0.108 -0.37200001 12
3.257 -0.116 -0.333 15
3.368 -0.125 -0.292 18
2.8789999 -0.108 -0.477 14
2.971 -0.116 -0.44499999 13
3.0610001 -0.124 -0.41 11
3.145 -0.133 -0.37099999 13
3.2620001 -0.14300001 -0.33399999 15
3.3699999 -0.153 -0.29300001 19
2.875 -0.131 -0.477 12
2.9719999 -0.14 -0.44499999 14
3.062 -0.149 -0.41 13
3.151 -0.15800001 -0.37200001 15
3.2579999 -0.168 -0.33399999 15
3.369 -0.17900001 -0.29300001 16
2.8800001 -0.154 -0.47799999 14
2.973 -0.164 -0.44600001 12
3.0610001 -0.17299999 -0.41 13
3.148 -0.183 -0.37200001 13
3.2620001 -0.19400001 -0.33399999 15
3.375 -0.206 -0.294 17
2.8789999 -0.177 -0.47799999 13
2.974 -0.18700001 -0.44600001 14
3.0650001 -0.198 -0.41100001 12
3.152 -0.208 -0.373 14
3.2609999 -0.22 -0.33500001 14
3.3759999 -0.233 -0.294 16
2.8829999 -0.2 -0.479 12
2.973 -0.211 -0.44600001 12
3.0650001 -0.222 -0.412 12
3.1470001 -0.23199999 -0.373 13
3.2639999 -0.24600001 -0.33500001 15
3.372 -0.25999999 -0.294 17
2.882 -0.223 -0.47999999 14
2.974 -0.234 -0.447 13
3.0599999 -0.245 -0.41100001 11
3.151 -0.257 -0.37400001 13
3.2639999 -0.27200001 -0.336 16
3.368 -0.285 -0.294 18
2.8829999 -0.245 -0.47999999 15
2.9719999 -0.257 -0.447 13
3.066 -0.27000001 -0.412 11
3.1530001 -0.28200001 -0.37400001 15
3.26 -0.29699999 -0.33500001 16
3.3670001 -0.31200001 -0.294 19
2.882 -0.26800001 -0.47999999 15
2.9690001 -0.28 -0.447 12
3.062 -0.29300001 -0.412 14
3.155 -0.30700001 -0.375 14
3.263 -0.322 -0.336 19
3.3759999 -0.33899999 -0.29499999 18
2.885 -0.28999999 -0.48100001 15
2.9760001 -0.303 -0.449 14
3.063 -0.317 -0.41299999 13
3.155 -0.331 -0.375 15
3.2690001 -0.34799999 -0.33700001 15
3.3770001 -0.36500001 -0.29499999 19
2.8789999 -0.31200001 -0.48100001 15
2.974 -0.32600001 -0.449 14
3.0650001 -0.34099999 -0.414 12
3.155 -0.35499999 -0.37599999 14
3.266 -0.373 -0.33700001 17
3.3789999 -0.391 -0.296 20
2.888 -0.33500001 -0.48300001 16
2.973 -0.34900001 -0.449 14
3.0650001 -0.36399999 -0.414 13
3.1559999 -0.38 -0.37599999 16
3.2650001 -0.398 -0.338 17
3.378 -0.417 -0.296 20
2.8800001 -0.35600001 -0.48199999 16
2.9690001 -0.37099999 -0.449 14
3.069 -0.38800001 -0.41499999 14
3.1600001 -0.40400001 -0.377 13
3.263 -0.42199999 -0.338 17
3.3699999 -0.44100001 -0.296 23
2.881 -0.37799999 -0.48300001 15
2.974 -0.39399999 -0.45100001 14
3.0639999 -0.41100001 -0.41499999 13
3.155 -0.42699999 -0.377 14
3.267 -0.44800001 -0.33899999 17
3.3789999 -0.46799999 -0.29800001 22
0 6.1440001 0 0
0 0 0 0
0 0 0 0
0 0 0 255
2.878 -0.39899999 -0.48300001 15
2.964 -0.41499999 -0.44999999 16
3.063 -0.433 -0.41600001 12
3.1600001 -0.45100001 -0.37900001 14
3.266 -0.472 -0.34 16
3.378 -0.493 -0.29800001 24
2.881 -0.421 -0.48500001 15
2.967 -0.43700001 -0.45100001 15
3.063 -0.456 -0.417 14
3.1570001 -0.47499999 -0.37900001 14
3.266 -0.49599999 -0.34 18
3.3740001 -0.51700002 -0.29899999 26
2.875 -0.442 -0.484 18
2.9660001 -0.46000001 -0.45199999 20
3.066 -0.479 -0.41800001 13
3.1559999 -0.498 -0.38 22
3.2609999 -0.51899999 -0.34099999 21
3.362 -0.54000002 -0.29800001 36
2.8759999 -0.463 -0.486 19
2.974 -0.48300001 -0.454 16
3.0639999 -0.50099999 -0.41800001 17
3.155 -0.52100003 -0.38 22
3.2539999 -0.542 -0.34099999 28
3.3640001 -0.565 -0.29899999 30
2.875 -0.484 -0.486 31
2.9590001 -0.50199997 -0.45300001 18
3.052 -0.52200001 -0.41800001 26
3.1440001 -0.542 -0.38 21
3.253 -0.565 -0.34200001 32
3.372 -0.59100002 -0.301 34
2.868 -0.50300002 -0.486 26
2.95 -0.52100003 -0.45199999 38
3.0450001 -0.542 -0.41800001 25
3.1459999 -0.56400001 -0.38100001 27
3.2639999 -0.58999997 -0.34400001 18
3.3770001 -0.616 -0.30199999 21
2.8640001 -0.523 -0.48699999 22
2.9530001 -0.54299998 -0.454 26
3.0539999 -0.56599998 -0.41999999 17
3.1470001 -0.58700001 -0.38299999 16
3.2639999 -0.61400002 -0.345 20
3.3770001 -0.63999999 -0.303 26
2.8759999 -0.546 -0.49000001 15
2.9679999 -0.56699997 -0.45699999 17
3.059 -0.588 -0.42199999 16
3.158 -0.611 -0.38499999 18
3.2639999 -0.63700002 -0.34599999 20
3.372 -0.66299999 -0.30399999 22
2.8710001 -0.565 -0.49000001 19
2.9619999 -0.58700001 -0.458 17
3.053 -0.60900003 -0.42199999 15
3.1530001 -0.63200003 -0.38600001 19
3.2590001 -0.65799999 -0.347 20
3.378 -0.68699998 -0.30599999 25
2.869 -0.58499998 -0.491 24
2.961 -0.60699999 -0.45899999 16
3.0610001 -0.63099998 -0.42500001 17
3.1570001 -0.65499997 -0.38800001 16
3.2620001 -0.68099999 -0.34799999 20
3.375 -0.70999998 -0.30700001 20
2.8729999 -0.60600001 -0.49399999 19
2.961 -0.62699997 -0.46000001 17
3.0580001 -0.65200001 -0.426 16
3.1570001 -0.67699999 -0.389 15
3.263 -0.704 -0.34999999 18
3.3729999 -0.73199999 -0.308 23
2.8770001 -0.62599999 -0.49599999 19
2.9649999 -0.64899999 -0.463 15
3.05 -0.67000002 -0.426 15
3.1559999 -0.69800001 -0.38999999 15
3.263 -0.72600001 -0.352 17
3.368 -0.75400001 -0.31 18
2.8710001 -0.64499998 -0.49700001 22
2.954 -0.66600001 -0.463 15
3.052 -0.69099998 -0.428 16
3.1500001 -0.71799999 -0.391 16
3.257 -0.74599999 -0.35299999 17
3.3670001 -0.77600002 -0.31099999 23
2.8670001 -0.66299999 -0.498 16
2.96 -0.68699998 -0.465 15
3.05 -0.71100003 -0.43000001 15
3.155 -0.74000001 -0.39399999 15
3.2579999 -0.76800001 -0.354 16
3.3759999 -0.80000001 -0.31400001 23
2.872 -0.68300003 -0.5 18
2.9619999 -0.70700002 -0.46700001 15
3.05 -0.73100001 -0.43200001 16
3.1500001 -0.759 -0.39500001 15
3.256 -0.78899997 -0.35600001 17
3.362 -0.81900001 -0.31400001 22
2.8699999 -0.70099998 -0.50199997 16
2.957 -0.72500002 -0.46900001 15
3.0439999 -0.75 -0.433 14
3.142 -0.77700001 -0.396 14
3.247 -0.80699998 -0.35699999 15
3.3659999 -0.84100002 -0.317 20
0 6.1440001 0 0
0 0 0 0
0 0 0 0
0 0 0 255
2.8659999 -0.71899998 -0.50300002 26
2.9590001 -0.745 -0.47099999 16
3.0450001 -0.76899999 -0.435 15
3.142 -0.79699999 -0.398 15
3.247 -0.82800001 -0.359 17
3.359 -0.86000001 -0.31799999 20
2.8659999 -0.73699999 -0.505 17
2.9460001 -0.75999999 -0.47099999 15
3.036 -0.78600001 -0.43599999 16
3.1440001 -0.81699997 -0.40099999 14
3.247 -0.847 -0.361 17
3.3610001 -0.88099998 -0.32100001 22
2.859 -0.75300002 -0.50599998 17
2.948 -0.77899998 -0.47400001 14
3.0369999 -0.80500001 -0.43799999 17
3.141 -0.83499998 -0.403 17
3.2420001 -0.866 -0.36300001 17
3.3570001 -0.90100002 -0.32300001 21
2.8599999 -0.77100003 -0.509 16
2.9449999 -0.796 -0.47600001 15
3.033 -0.82200003 -0.44 15
3.1370001 -0.85299999 -0.40400001 16
3.237 -0.884 -0.36500001 16
3.348 -0.91799998 -0.324 16
2.8510001 -0.78600001 -0.50999999 19
2.9419999 -0.81300002 -0.47799999 18
3.0339999 -0.84100002 -0.44299999 15
3.1300001 -0.87 -0.40599999 15
3.24 -0.90399998 -0.368 19
3.346 -0.93699998 -0.32699999 20
2.8510001 -0.80199999 -0.51200002 13
2.9349999 -0.82800001 -0.479 14
3.029 -0.85699999 -0.44499999 16
3.1270001 -0.88700002 -0.40799999 17
3.2349999 -0.921 -0.37 18
3.336 -0.95300001 -0.32800001 18
2.8469999 -0.81800002 -0.514 18
2.937 -0.84500003 -0.48199999 15
3.026 -0.87300003 -0.447 15
3.1229999 -0.903 -0.41 14
3.2249999 -0.93599999 -0.37200001 16
3.3440001 -0.97299999 -0.33199999 23
2.845 -0.833 -0.51700002 18
2.9319999 -0.86000001 -0.484 15
3.0190001 -0.88800001 -0.449 14
3.1199999 -0.91900003 -0.41299999 16
3.22 -0.95200002 -0.37400001 16
3.3340001 -0.98900002 -0.33399999 20
2.836 -0.84600002 -0.51800001 17
2.9260001 -0.875 -0.486 15
3.0179999 -0.90399998 -0.45199999 14
3.1170001 -0.93599999 -0.41600001 15
3.223 -0.97000003 -0.37799999 19
3.3269999 -1.0039999 -0.336 21
2.835 -0.86199999 -0.52100003 16
2.9230001 -0.88999999 -0.48899999 14
3.0139999 -0.91900003 -0.454 16
3.1099999 -0.94999999 -0.41800001 15
3.2190001 -0.986 -0.38 19
3.319 -1.0190001 -0.33899999 17
2.832 -0.87599999 -0.523 14
2.914 -0.90200001 -0.49000001 18
3.006 -0.93199998 -0.456 14
3.1029999 -0.96399999 -0.41999999 14
3.204 -0.99699998 -0.382 16
3.3180001 -1.035 -0.34200001 20
2.829 -0.889 -0.52600002 18
2.915 -0.917 -0.493 14
3.0039999 -0.94599998 -0.45899999 14
3.1029999 -0.97899997 -0.42300001 15
3.2049999 -1.013 -0.38499999 17
3.3099999 -1.049 -0.34400001 21
2.819 -0.89999998 -0.52700001 15
2.9100001 -0.93000001 -0.49599999 17
3.0009999 -0.95999998 -0.46200001 17
3.0969999 -0.991 -0.426 14
3.191 -1.023 -0.38699999 15
3.302 -1.061 -0.347 18
2.819 -0.91399997 -0.53100002 18
2.9059999 -0.94199997 -0.498 17
2.9920001 -0.97100002 -0.46399999 14
3.0869999 -1.002 -0.428 15
3.191 -1.038 -0.38999999 17
3.3010001 -1.076 -0.34999999 20
2.813 -0.92500001 -0.53299999 16
2.902 -0.954 -0.50099999 16
2.9879999 -0.98299998 -0.46700001 14
3.0829999 -1.015 -0.43099999 14
3.1800001 -1.048 -0.39300001 16
3.2969999 -1.0880001 -0.354 21
2.8039999 -0.93400002 -0.53500003 15
2.8940001 -0.96399999 -0.50300002 14
2.9790001 -0.99199998 -0.46900001 13
3.0710001 -1.024 -0.433 15
3.181 -1.061 -0.396 17
3.2850001 -1.098 -0.35600001 18
0 6.1440001 0 0
0 0 0 0
0 0 0 0
0 0 0 255
2.7969999 -0.94400001 -0.537 14
2.8859999 -0.97299999 -0.50599998 15
2.9749999 -1.003 -0.472 16
3.075 -1.0369999 -0.43700001 16
3.171 -1.071 -0.39899999 16
3.28 -1.109 -0.359 22
2.7969999 -0.95499998 -0.54000002 17
2.8840001 -0.98400003 -0.509 14
2.9690001 -1.013 -0.47400001 14
3.066 -1.046 -0.43900001 14
3.165 -1.081 -0.40200001 15
3.273 -1.118 -0.36199999 18
2.7920001 -0.96399999 -0.54299998 15
2.878 -0.99299997 -0.51099998 15
2.964 -1.022 -0.477 14
3.0599999 -1.056 -0.442 16
3.1600001 -1.09 -0.405 15
3.266 -1.127 -0.36500001 19
2.7839999 -0.972 -0.54500002 17
2.872 -1.001 -0.514 15
2.9549999 -1.03 -0.479 15
3.056 -1.064 -0.44499999 15
3.1589999 -1.1 -0.40900001 17
3.26 -1.136 -0.36899999 21
2.7809999 -0.98100001 -0.54799998 17
2.868 -1.01 -0.51700002 15
2.9519999 -1.038 -0.48300001 15
3.0469999 -1.071 -0.44800001 15
3.1470001 -1.1059999 -0.41100001 16
3.253 -1.1440001 -0.37200001 18
2.777 -0.98799998 -0.551 17
2.862 -1.017 -0.51899999 13
2.941 -1.044 -0.48500001 15
3.0409999 -1.0779999 -0.45100001 15
3.1429999 -1.114 -0.414 17
3.2409999 -1.149 -0.375 19
2.7679999 -0.99400002 -0.55299997 16
2.8540001 -1.023 -0.52200001 15
2.937 -1.051 -0.48800001 15
3.0380001 -1.086 -0.454 15
3.1359999 -1.12 -0.417 15
3.2420001 -1.1569999 -0.37799999 17
2.7639999 -1 -0.55599999 16
2.849 -1.029 -0.52499998 15
2.937 -1.058 -0.491 15
3.03 -1.09 -0.45699999 19
3.128 -1.125 -0.41999999 15
3.2360001 -1.163 -0.382 18
2.7590001 -1.006 -0.55800003 17
2.8440001 -1.034 -0.52700001 16
2.9289999 -1.063 -0.49399999 14
3.0220001 -1.094 -0.45899999 17
3.1210001 -1.1289999 -0.42300001 16
3.2249999 -1.166 -0.384 22
2.753 -1.01 -0.56099999 19
2.8340001 -1.0369999 -0.52899998 15
2.921 -1.066 -0.49599999 15
3.0150001 -1.099 -0.46200001 17
3.1129999 -1.133 -0.426 17
3.217 -1.169 -0.38699999 23
2.747 -1.0140001 -0.56300002 18
2.8269999 -1.04 -0.53200001 17
2.9200001 -1.072 -0.5 14
3 -1.099 -0.463 15
3.108 -1.136 -0.42899999 16
3.2119999 -1.173 -0.391 18
