# .PCD v0.7 - Point Cloud Data file format
VERSION 0.7
FIELDS x y z intensity
SIZE 4 4 4 4
TYPE F F F F
COUNT 1 1 1 1
WIDTH 1631
HEIGHT 1
VIEWPOINT 0 0 0 1 0 0 0
POINTS 1631
DATA ascii
3.5079999 -1.036 -0.26800001 15
3.645 -1.076 -0.22 17
3.777 -1.114 -0.167 19
3.1530001 -0.94 -0.39899999 17
3.2679999 -0.97100002 -0.36000001 15
3.375 -1.001 -0.317 14
3.494 -1.035 -0.271 14
3.638 -1.076 -0.22400001 17
3.7639999 -1.112 -0.171 19
3.148 -0.94 -0.40200001 15
3.2579999 -0.97000003 -0.36300001 16
3.369 -1.001 -0.31999999 14
3.49 -1.035 -0.27500001 15
3.625 -1.073 -0.227 18
3.7590001 -1.1109999 -0.175 20
3.141 -0.93900001 -0.405 14
3.2520001 -0.97000003 -0.366 16
3.358 -0.99900001 -0.32300001 13
3.4790001 -1.0319999 -0.278 15
3.6140001 -1.0700001 -0.23100001 17
3.744 -1.107 -0.17900001 21
3.132 -0.93699998 -0.40799999 14
3.2460001 -0.96799999 -0.36899999 16
3.3540001 -0.99699998 -0.32699999 13
3.4619999 -1.027 -0.28099999 16
3.6040001 -1.067 -0.234 17
3.743 -1.1059999 -0.183 21
3.128 -0.93599999 -0.41100001 15
3.234 -0.96399999 -0.37200001 15
3.342 -0.99299997 -0.329 13
3.464 -1.027 -0.285 16
3.595 -1.063 -0.23800001 17
3.73 -1.1 -0.18700001 20
3.122 -0.93300003 -0.414 14
3.227 -0.96100003 -0.375 15
3.339 -0.991 -0.333 14
3.4489999 -1.021 -0.28799999 16
3.5880001 -1.059 -0.242 18
3.7130001 -1.0930001 -0.19 20
3.1110001 -0.92900002 -0.41600001 14
3.2249999 -0.95899999 -0.37799999 15
3.3310001 -0.98699999 -0.336 14
3.448 -1.018 -0.292 16
3.579 -1.053 -0.245 17
3.711 -1.089 -0.19400001 19
0 6.1440001 0 0
0 0 0 0
0 0 0 0
0 0 0 255
3.1029999 -0.92400002 -0.41800001 15
3.2160001 -0.954 -0.38100001 14
3.323 -0.98100001 -0.33899999 14
3.4400001 -1.012 -0.29499999 16
3.5699999 -1.0470001 -0.248 16
3.6949999 -1.08 -0.198 19
3.0969999 -0.92000002 -0.421 16
3.2030001 -0.94700003 -0.382 13
3.313 -0.97500002 -0.34099999 15
3.431 -1.006 -0.29699999 14
3.562 -1.04 -0.25099999 16
3.691 -1.075 -0.20100001 19
3.0910001 -0.91399997 -0.42300001 16
3.2 -0.94199997 -0.38499999 14
3.3099999 -0.97000003 -0.34400001 15
3.418 -0.99699998 -0.30000001 15
3.5539999 -1.033 -0.25400001 16
3.6760001 -1.0650001 -0.204 19
3.085 -0.90899998 -0.426 15
3.191 -0.935 -0.38699999 15
3.3010001 -0.96200001 -0.347 14
3.414 -0.991 -0.303 15
3.546 -1.025 -0.257 17
3.674 -1.058 -0.207 19
3.073 -0.89999998 -0.42699999 15
3.1860001 -0.92799997 -0.38999999 14
3.2920001 -0.954 -0.34900001 14
3.404 -0.98199999 -0.30500001 14
3.5380001 -1.016 -0.25999999 16
3.6659999 -1.048 -0.20999999 20
3.0680001 -0.89300001 -0.42899999 14
3.1730001 -0.91900003 -0.391 13
3.2920001 -0.94800001 -0.352 14
3.3970001 -0.97299999 -0.30700001 15
3.5250001 -1.005 -0.26199999 15
3.6500001 -1.036 -0.212 18
3.0669999 -0.88700002 -0.43099999 14
3.1689999 -0.91100001 -0.39300001 15
3.2809999 -0.93800002 -0.35299999 13
3.3900001 -0.96399999 -0.31 15
3.5220001 -0.99599999 -0.264 15
3.648 -1.027 -0.215 17
3.0669999 -0.88 -0.43399999 13
3.161 -0.90100002 -0.39500001 14
3.279 -0.92900002 -0.35600001 14
3.385 -0.954 -0.31200001 14
3.5139999 -0.98500001 -0.26699999 16
3.6429999 -1.016 -0.21799999 19
3.053 -0.86900002 -0.43399999 15
3.1630001 -0.89399999 -0.398 15
3.2690001 -0.91799998 -0.35699999 14
3.3729999 -0.94199997 -0.31299999 13
3.5039999 -0.97299999 -0.26899999 16
3.632 -1.003 -0.22 18
3.0510001 -0.86000001 -0.43599999 16
3.154 -0.88300002 -0.39899999 14
3.2650001 -0.90799999 -0.359 14
3.369 -0.93099999 -0.315 15
3.497 -0.96100003 -0.271 15
3.6229999 -0.99000001 -0.222 21
3.049 -0.85100001 -0.43799999 17
3.1470001 -0.87199998 -0.40000001 14
3.2590001 -0.89700001 -0.361 13
3.362 -0.91900003 -0.317 13
3.4909999 -0.949 -0.273 16
3.625 -0.97899997 -0.22400001 18
3.0450001 -0.84100002 -0.44 16
3.148 -0.86299998 -0.40200001 13
3.2550001 -0.88599998 -0.36199999 13
3.3610001 -0.90799999 -0.31900001 14
3.487 -0.93699998 -0.27399999 17
3.6140001 -0.96499997 -0.226 17
3.046 -0.83099997 -0.442 17
3.1359999 -0.84899998 -0.40200001 14
3.2479999 -0.87300003 -0.36300001 14
3.352 -0.89499998 -0.31999999 16
3.48 -0.92299998 -0.27599999 16
3.6099999 -0.95099998 -0.228 21
3.04 -0.81900001 -0.442 15
3.132 -0.838 -0.40400001 16
3.234 -0.85799998 -0.36300001 13
3.346 -0.88099998 -0.32100001 15
3.477 -0.90899998 -0.27700001 16
3.6070001 -0.93699998 -0.229 18
3.03 -0.80599999 -0.442 16
3.1329999 -0.82599998 -0.405 15
3.244 -0.84899998 -0.366 14
3.342 -0.86799997 -0.322 14
3.4749999 -0.89600003 -0.27900001 15
3.6029999 -0.92299998 -0.23100001 18
3.033 -0.79500002 -0.44400001 15
3.1300001 -0.81400001 -0.40599999 13
3.2379999 -0.83499998 -0.36700001 15
3.3380001 -0.85399997 -0.32300001 14
3.4649999 -0.88 -0.27900001 18
3.595 -0.90600002 -0.23199999 19
0 6.1440001 0 0
0 0 0 0
0 0 0 0
0 0 0 255
3.029 -0.78200001 -0.44499999 18
3.1259999 -0.80000001 -0.40700001 16
3.2349999 -0.82099998 -0.368 14
3.339 -0.83999997 -0.32499999 14
3.4630001 -0.86500001 -0.28099999 17
3.5899999 -0.88999999 -0.233 19
3.027 -0.76899999 -0.44499999 16
3.1240001 -0.787 -0.40799999 13
3.227 -0.80500001 -0.368 13
3.335 -0.82499999 -0.32499999 14
3.4590001 -0.84899998 -0.28099999 16
3.5840001 -0.87300003 -0.234 20
3.023 -0.755 -0.44499999 17
3.122 -0.773 -0.40799999 14
3.2219999 -0.79000002 -0.368 14
3.3399999 -0.81199998 -0.32699999 15
3.457 -0.83399999 -0.28200001 16
3.5869999 -0.85799998 -0.235 18
3.0280001 -0.74299997 -0.447 15
3.118 -0.75800002 -0.40799999 14
3.224 -0.77600002 -0.36899999 13
3.3340001 -0.796 -0.32699999 16
3.454 -0.81699997 -0.28299999 16
3.5829999 -0.84100002 -0.236 19
3.017 -0.727 -0.44600001 17
3.122 -0.745 -0.40900001 13
3.223 -0.76099998 -0.36899999 14
3.332 -0.77999997 -0.32699999 14
3.4549999 -0.801 -0.28299999 15
3.579 -0.82300001 -0.236 18
3.0190001 -0.713 -0.44600001 15
3.109 -0.727 -0.40799999 13
3.221 -0.745 -0.37 17
3.3310001 -0.764 -0.32800001 15
3.454 -0.78399998 -0.28400001 16
3.5769999 -0.80500001 -0.236 17
3.0209999 -0.699 -0.447 16
3.1140001 -0.713 -0.40900001 15
3.2179999 -0.72899997 -0.37 13
3.3299999 -0.74699998 -0.32800001 14
3.45 -0.76599997 -0.28400001 14
3.573 -0.78600001 -0.236 17
3.017 -0.68300003 -0.44600001 17
3.1170001 -0.69800001 -0.40900001 14
3.217 -0.713 -0.36899999 13
3.3269999 -0.72899997 -0.32800001 15
3.4449999 -0.74800003 -0.28400001 15
3.5739999 -0.76800001 -0.237 18
3.0179999 -0.66799998 -0.44600001 15
3.1129999 -0.68099999 -0.40900001 14
3.2160001 -0.69599998 -0.36899999 13
3.3210001 -0.71100003 -0.32699999 14
3.444 -0.73000002 -0.28400001 15
3.573 -0.75 -0.237 19
3.0109999 -0.65100002 -0.44499999 20
3.1110001 -0.66399997 -0.40799999 15
3.2119999 -0.67799997 -0.36899999 14
3.323 -0.69400001 -0.32699999 15
3.444 -0.71200001 -0.28299999 17
3.5710001 -0.73000002 -0.236 17
3.016 -0.63499999 -0.44600001 19
3.1099999 -0.64700001 -0.40799999 14
3.2130001 -0.66100001 -0.36899999 14
3.325 -0.676 -0.32699999 14
3.444 -0.69300002 -0.28299999 16
3.5699999 -0.71100003 -0.236 16
3.017 -0.61900002 -0.44499999 17
3.112 -0.63099998 -0.40799999 15
3.2149999 -0.64399999 -0.368 14
3.323 -0.65799999 -0.32699999 14
3.448 -0.67500001 -0.28299999 17
3.569 -0.69099998 -0.236 19
3.017 -0.602 -0.44499999 14
3.1099999 -0.61299998 -0.40700001 13
3.2130001 -0.62599999 -0.368 14
3.329 -0.63999999 -0.32699999 15
3.447 -0.65499997 -0.28299999 15
3.5699999 -0.671 -0.235 17
3.017 -0.58499998 -0.44400001 17
3.1129999 -0.59600002 -0.40700001 14
3.2160001 -0.60799998 -0.36700001 16
3.323 -0.62 -0.32600001 15
3.4460001 -0.63499999 -0.28200001 16
3.573 -0.65100002 -0.235 16
3.017 -0.56800002 -0.44299999 18
3.1110001 -0.57700002 -0.40599999 14
3.2119999 -0.588 -0.366 16
3.3210001 -0.60000002 -0.32499999 15
3.4400001 -0.61400002 -0.28099999 16
3.5699999 -0.62900001 -0.234 18
3.0179999 -0.55000001 -0.44299999 16
3.1110001 -0.55900002 -0.405 16
3.2160001 -0.56999999 -0.366 13
3.3199999 -0.57999998 -0.324 16
3.4449999 -0.59399998 -0.28 15
3.5699999 -0.60799998 -0.233 18
0 6.1440001 0 0
0 0 0 0
0 0 0 0
0 0 0 255
3.0209999 -0.53200001 -0.442 17
3.1140001 -0.54100001 -0.40400001 14
3.2190001 -0.551 -0.36500001 14
3.325 -0.56099999 -0.32300001 14
3.4449999 -0.574 -0.27900001 16
3.573 -0.58700001 -0.233 18
3.02 -0.514 -0.44100001 17
3.1129999 -0.52200001 -0.403 14
3.2190001 -0.53100002 -0.36399999 15
3.3280001 -0.54100001 -0.32300001 14
3.4430001 -0.55199999 -0.278 16
3.5739999 -0.565 -0.23199999 17
3.016 -0.49399999 -0.43900001 23
3.119 -0.50300002 -0.403 15
3.22 -0.51099998 -0.36300001 13
3.3299999 -0.52100003 -0.322 14
3.454 -0.53299999 -0.278 15
3.573 -0.54299998 -0.23100001 17
3.026 -0.477 -0.43900001 16
3.115 -0.48300001 -0.40099999 16
3.2190001 -0.491 -0.36199999 15
3.3299999 -0.5 -0.32100001 14
3.448 -0.50999999 -0.27599999 18
3.5739999 -0.52100003 -0.23 17
3.0239999 -0.45699999 -0.43799999 17
3.122 -0.46399999 -0.40099999 14
3.2249999 -0.472 -0.361 14
3.332 -0.479 -0.31999999 15
3.4460001 -0.48800001 -0.27500001 15
3.5780001 -0.49900001 -0.229 20
3.023 -0.43700001 -0.43599999 15
3.1170001 -0.44299999 -0.39899999 14
3.221 -0.44999999 -0.36000001 14
3.335 -0.458 -0.31900001 13
3.4519999 -0.46700001 -0.27500001 15
3.579 -0.47600001 -0.228 17
3.026 -0.41800001 -0.435 15
3.1229999 -0.42399999 -0.398 15
3.2309999 -0.43000001 -0.36000001 17
3.3340001 -0.43700001 -0.317 14
3.454 -0.44499999 -0.273 15
3.5780001 -0.45300001 -0.226 16
3.029 -0.398 -0.43399999 15
3.1240001 -0.403 -0.39700001 15
3.2279999 -0.40900001 -0.35800001 14
3.3299999 -0.414 -0.31600001 15
3.457 -0.42199999 -0.27200001 16
3.5799999 -0.42899999 -0.22499999 16
3.0309999 -0.37799999 -0.433 15
3.1270001 -0.38299999 -0.396 15
3.234 -0.38800001 -0.35699999 16
3.3410001 -0.39300001 -0.315 14
3.4579999 -0.39899999 -0.271 14
3.582 -0.40599999 -0.22400001 16
3.0309999 -0.35800001 -0.43200001 15
3.128 -0.36199999 -0.39500001 14
3.234 -0.36700001 -0.35600001 13
3.3329999 -0.37 -0.31299999 14
3.4560001 -0.37599999 -0.26899999 14
3.582 -0.382 -0.222 15
3.0380001 -0.338 -0.43099999 17
3.132 -0.34099999 -0.39399999 16
3.2349999 -0.345 -0.354 13
3.3399999 -0.34799999 -0.31200001 15
3.4590001 -0.35299999 -0.26800001 13
3.5810001 -0.35800001 -0.221 18
3.0380001 -0.317 -0.43000001 16
3.1300001 -0.31900001 -0.39199999 14
3.234 -0.322 -0.35299999 13
3.3429999 -0.32600001 -0.31099999 13
3.46 -0.329 -0.26699999 13
3.586 -0.33399999 -0.22 16
3.0380001 -0.296 -0.428 16
3.132 -0.29800001 -0.391 14
3.2360001 -0.30000001 -0.35100001 14
3.3410001 -0.30199999 -0.30899999 12
3.457 -0.30500001 -0.26499999 13
3.589 -0.30899999 -0.21799999 15
3.0369999 -0.27500001 -0.42699999 14
3.1370001 -0.27599999 -0.38999999 16
3.2320001 -0.27700001 -0.34900001 13
3.346 -0.28 -0.308 12
3.464 -0.28200001 -0.264 13
3.592 -0.285 -0.21699999 15
3.039 -0.25299999 -0.42500001 14
3.138 -0.25400001 -0.38800001 16
3.2390001 -0.255 -0.34900001 14
3.3510001 -0.25600001 -0.30700001 13
3.467 -0.25799999 -0.26300001 15
3.5929999 -0.259 -0.21600001 17
3.0420001 -0.23199999 -0.42399999 16
3.1370001 -0.23199999 -0.38699999 14
3.237 -0.23199999 -0.347 13
3.355 -0.233 -0.30599999 12
3.4719999 -0.234 -0.26199999 15
3.5910001 -0.234 -0.214 17
0 6.1440001 0 0
0 0 0 0
0 0 0 0
0 0 0 255
3.043 -0.20999999 -0.42300001 20
3.1389999 -0.20900001 -0.38499999 14
3.24 -0.20900001 -0.34599999 14
3.3570001 -0.20900001 -0.30500001 11
3.464 -0.20900001 -0.25999999 13
3.595 -0.20900001 -0.213 16
3.05 -0.18799999 -0.42199999 16
3.1389999 -0.18700001 -0.384 15
3.2409999 -0.186 -0.34400001 12
3.3499999 -0.185 -0.303 13
3.47 -0.184 -0.259 15
3.5940001 -0.183 -0.211 16
3.0469999 -0.16599999 -0.41999999 18
3.1429999 -0.164 -0.38299999 15
3.2390001 -0.162 -0.34299999 13
3.3510001 -0.161 -0.301 13
3.471 -0.15899999 -0.257 15
3.599 -0.15800001 -0.20999999 16
3.046 -0.14399999 -0.419 17
3.1470001 -0.141 -0.382 15
3.247 -0.139 -0.34200001 13
3.358 -0.13699999 -0.301 13
3.48 -0.134 -0.257 19
3.602 -0.132 -0.20900001 16
3.0539999 -0.121 -0.41800001 16
3.1440001 -0.118 -0.38 14
3.243 -0.115 -0.34 13
3.3510001 -0.112 -0.29899999 15
3.47 -0.109 -0.255 15
3.6059999 -0.106 -0.208 15
3.052 -0.098999999 -0.417 16
3.1429999 -0.094999999 -0.37900001 15
3.25 -0.090999998 -0.34 14
3.3599999 -0.088 -0.29800001 13
3.4779999 -0.083999999 -0.25400001 13
3.605 -0.079000004 -0.206 15
3.049 -0.075999998 -0.41499999 17
3.152 -0.071999997 -0.37900001 17
3.2520001 -0.067000002 -0.33899999 15
3.3540001 -0.061999999 -0.296 13
3.4779999 -0.057999998 -0.252 13
3.6070001 -0.052999999 -0.205 16
3.056 -0.052999999 -0.41499999 16
3.142 -0.048 -0.37599999 17
3.247 -0.043000001 -0.33700001 14
3.3540001 -0.037 -0.29499999 13
3.48 -0.032000002 -0.25099999 12
3.6059999 -0.026000001 -0.204 16
3.052 -0.029999999 -0.41299999 16
3.1489999 -0.024 -0.37599999 15
3.2449999 -0.017999999 -0.336 14
3.3599999 -0.012 -0.294 13
3.4820001 -0.0060000001 -0.25 13
3.608 0 -0.20299999 18
3.0569999 -0.0060000001 -0.41299999 15
3.1470001 0 -0.375 17
3.2479999 0.0049999999 -0.33500001 13
3.362 0.012 -0.29300001 13
3.48 0.018999999 -0.249 14
3.608 0.027000001 -0.20200001 15
3.0569999 0.016000001 -0.412 15
3.152 0.023 -0.37400001 14
3.243 0.029999999 -0.333 14
3.3510001 0.037 -0.29100001 14
3.4809999 0.046 -0.248 12
3.6059999 0.054000001 -0.20100001 14
3.056 0.039999999 -0.41100001 17
3.1500001 0.046999998 -0.373 14
3.2490001 0.055 -0.333 12
3.3659999 0.063000001 -0.292 11
3.4849999 0.071999997 -0.248 12
3.6170001 0.082000002 -0.2 15
3.0569999 0.063000001 -0.41 14
3.1570001 0.071000002 -0.373 12
3.2490001 0.079999998 -0.33199999 13
3.365 0.089000002 -0.29100001 13
3.4849999 0.098999999 -0.24699999 13
3.612 0.109 -0.199 17
3.0580001 0.086999997 -0.40900001 13
3.1459999 0.096000001 -0.37099999 13
3.2550001 0.105 -0.33199999 12
3.3629999 0.115 -0.28999999 12
3.4920001 0.126 -0.24600001 13
3.6170001 0.13699999 -0.199 17
3.0580001 0.111 -0.40799999 15
3.152 0.12 -0.37099999 12
3.2539999 0.13 -0.331 12
3.3540001 0.14 -0.28799999 14
3.487 0.152 -0.245 14
3.6129999 0.164 -0.198 15
3.0569999 0.13500001 -0.40799999 14
3.1500001 0.145 -0.37 11
3.2550001 0.156 -0.331 12
3.368 0.167 -0.289 12
3.4890001 0.18000001 -0.245 13
3.6099999 0.193 -0.197 14
0 6.1440001 0 0
0 0 0 0
0 0 0 0
0 0 0 255
3.0569999 0.16 -0.40700001 14
3.1440001 0.17 -0.36899999 12
3.26 0.18099999 -0.331 12
3.368 0.19400001 -0.28799999 14
3.487 0.207 -0.244 14
3.609 0.221 -0.19599999 15
3.056 0.184 -0.40599999 15
3.148 0.19499999 -0.36899999 12
3.2579999 0.207 -0.33000001 12
3.3659999 0.22 -0.28799999 13
3.4890001 0.235 -0.244 12
3.6099999 0.249 -0.19599999 16
3.0550001 0.208 -0.40599999 14
3.152 0.22 -0.36899999 14
3.2590001 0.233 -0.33000001 13
3.3610001 0.24600001 -0.287 12
3.4860001 0.26100001 -0.243 12
3.609 0.27700001 -0.19499999 16
3.0539999 0.233 -0.40599999 14
3.1500001 0.245 -0.368 14
3.2490001 0.25799999 -0.32800001 13
3.359 0.273 -0.287 12
3.4779999 0.28799999 -0.242 13
3.6059999 0.30500001 -0.19499999 16
3.052 0.257 -0.405 13
3.148 0.27000001 -0.368 13
3.2479999 0.28400001 -0.32800001 13
3.358 0.29899999 -0.28600001 13
3.4779999 0.31600001 -0.242 14
3.6059999 0.33399999 -0.19499999 16
3.05 0.28200001 -0.405 14
3.1500001 0.296 -0.368 13
3.2479999 0.31 -0.32800001 12
3.3599999 0.32600001 -0.287 12
3.4760001 0.34299999 -0.242 14
3.6010001 0.36199999 -0.19400001 16
3.0580001 0.30700001 -0.40599999 14
3.142 0.31999999 -0.36700001 13
3.2479999 0.336 -0.32800001 12
3.358 0.35299999 -0.28600001 12
3.4779999 0.37099999 -0.242 13
3.5999999 0.38999999 -0.19400001 16
3.0539999 0.33199999 -0.40599999 15
3.1459999 0.34599999 -0.368 14
3.2449999 0.36199999 -0.32800001 11
3.3529999 0.37900001 -0.28600001 17
3.4719999 0.39899999 -0.242 16
3.5999999 0.419 -0.19400001 15
3.049 0.35600001 -0.405 14
3.1440001 0.37200001 -0.368 14
3.244 0.38800001 -0.32800001 12
3.3529999 0.40700001 -0.28600001 12
3.4679999 0.426 -0.242 15
3.596 0.44800001 -0.19499999 17
3.05 0.38100001 -0.40599999 14
3.145 0.398 -0.368 13
3.2420001 0.41499999 -0.32800001 13
3.3429999 0.433 -0.28600001 13
3.4630001 0.454 -0.242 14
3.5940001 0.477 -0.19499999 17
3.043 0.40599999 -0.405 13
3.1389999 0.42300001 -0.368 13
3.2349999 0.44100001 -0.32800001 12
3.3469999 0.461 -0.287 13
3.467 0.48199999 -0.243 14
3.5880001 0.505 -0.19499999 16
3.039 0.43099999 -0.40599999 13
3.1359999 0.449 -0.36899999 13
3.2390001 0.46799999 -0.329 13
3.3429999 0.48800001 -0.287 14
3.4560001 0.509 -0.242 14
3.5869999 0.53399998 -0.19499999 17
3.0369999 0.456 -0.40599999 16
3.131 0.47400001 -0.36899999 13
3.2279999 0.493 -0.329 15
3.3340001 0.514 -0.287 13
3.4549999 0.53799999 -0.243 15
3.582 0.56300002 -0.19599999 18
3.0320001 0.47999999 -0.40599999 14
3.128 0.5 -0.36899999 14
3.2279999 0.51999998 -0.33000001 12
3.335 0.542 -0.28799999 14
3.451 0.565 -0.243 15
3.579 0.59100002 -0.19599999 17
3.026 0.505 -0.40700001 16
3.1259999 0.52499998 -0.37 14
3.221 0.54500002 -0.33000001 14
3.3340001 0.56900001 -0.289 14
3.4489999 0.59399998 -0.244 14
3.5710001 0.62 -0.197 19
3.029 0.53100002 -0.40799999 14
3.125 0.55199999 -0.37099999 14
3.224 0.57300001 -0.331 13
3.325 0.59500003 -0.289 13
3.447 0.62199998 -0.245 16
3.569 0.64899999 -0.198 17
0 6.1440001 0 0
0 0 0 0
0 0 0 0
0 0 0 255
3.023 0.55599999 -0.40900001 14
3.1129999 0.57599998 -0.37099999 15
3.214 0.59799999 -0.33199999 13
3.3210001 0.62300003 -0.28999999 13
3.4389999 0.64899999 -0.24600001 16
3.5699999 0.67900002 -0.199 18
3.0150001 0.57999998 -0.40900001 15
3.1099999 0.602 -0.37200001 14
3.2090001 0.625 -0.33199999 15
3.3150001 0.64899999 -0.29100001 13
3.438 0.67799997 -0.24699999 16
3.562 0.70700002 -0.2 16
3.0139999 0.60600001 -0.41 16
3.1070001 0.62699997 -0.373 14
3.204 0.65100002 -0.333 14
3.313 0.67699999 -0.292 15
3.4349999 0.70599997 -0.248 16
3.5550001 0.736 -0.20100001 16
3.007 0.63 -0.41100001 16
3.1040001 0.65399998 -0.37400001 14
3.2049999 0.67900002 -0.33500001 14
3.306 0.704 -0.29300001 14
3.427 0.73400003 -0.249 16
3.5469999 0.764 -0.20200001 16
3.003 0.65600002 -0.412 16
3.095 0.67900002 -0.375 15
3.2 0.70499998 -0.336 16
3.306 0.73199999 -0.294 14
3.418 0.76099998 -0.25 14
3.5420001 0.79299998 -0.20299999 17
3 0.68099999 -0.414 16
3.0929999 0.70499998 -0.37599999 14
3.187 0.73000002 -0.336 14
3.296 0.75800002 -0.29499999 14
3.408 0.78799999 -0.25099999 14
3.539 0.82300001 -0.205 17
2.9990001 0.70700002 -0.41499999 13
3.085 0.73000002 -0.377 15
3.184 0.75700003 -0.338 15
3.29 0.78500003 -0.29699999 15
3.4070001 0.81699997 -0.25299999 14
3.53 0.85100001 -0.206 17
2.9849999 0.73000002 -0.41600001 17
3.079 0.75599998 -0.37900001 16
3.1830001 0.78399998 -0.34 28
3.277 0.81099999 -0.29699999 16
3.401 0.84500003 -0.25400001 17
3.5220001 0.87900001 -0.207 18
2.984 0.75599998 -0.41800001 16
3.075 0.78200001 -0.38 14
3.1719999 0.80900002 -0.34099999 41
3.2720001 0.838 -0.29899999 27
3.3959999 0.87300003 -0.25600001 15
3.52 0.90899998 -0.20900001 18
2.9749999 0.78100002 -0.419 14
3.0610001 0.80599999 -0.38100001 16
3.164 0.83499998 -0.34200001 42
3.2690001 0.866 -0.301 32
3.3959999 0.903 -0.25799999 16
3.513 0.93800002 -0.211 17
2.9690001 0.80599999 -0.41999999 17
3.073 0.83700001 -0.38499999 34
3.165 0.86400002 -0.345 42
3.2639999 0.89399999 -0.303 35
3.3759999 0.92799997 -0.259 16
3.5090001 0.96799999 -0.213 17
2.9649999 0.83200002 -0.42199999 15
3.0569999 0.85900003 -0.38499999 45
3.152 0.889 -0.34599999 41
3.2509999 0.91900003 -0.30399999 17
3.3759999 0.958 -0.26100001 15
3.4990001 0.99599999 -0.214 16
2.9549999 0.85600001 -0.42300001 18
3.052 0.88599998 -0.38699999 42
3.1470001 0.91600001 -0.34799999 40
3.25 0.94800001 -0.30599999 13
3.365 0.98500001 -0.26300001 16
3.4909999 1.025 -0.21600001 16
2.9519999 0.88200003 -0.426 36
3.0409999 0.91000003 -0.389 45
3.135 0.94 -0.34900001 42
3.247 0.97600001 -0.30899999 13
3.3559999 1.012 -0.26499999 17
3.483 1.054 -0.21799999 16
2.9330001 0.903 -0.426 48
3.0339999 0.93599999 -0.391 43
3.1329999 0.96799999 -0.352 25
3.2360001 1.002 -0.31 14
3.352 1.041 -0.26699999 15
3.4790001 1.084 -0.221 19
2.9300001 0.92900002 -0.428 55
3.0280001 0.96200001 -0.39300001 50
3.1270001 0.995 -0.354 17
3.2290001 1.029 -0.31200001 16
3.348 1.0700001 -0.26899999 18
3.4660001 1.1109999 -0.223 20
0 6.1440001 0 0
0 0 0 0
0 0 0 0
0 0 0 255
2.921 0.95300001 -0.43000001 56
3.02 0.98699999 -0.39500001 52
3.119 1.021 -0.35600001 19
3.217 1.0549999 -0.31400001 17
3.336 1.096 -0.271 17
3.4579999 1.1390001 -0.22499999 20
2.9130001 0.97799999 -0.43200001 53
3.0139999 1.013 -0.39700001 39
3.1110001 1.0470001 -0.35800001 17
3.2179999 1.084 -0.317 16
3.332 1.125 -0.27399999 18
3.45 1.168 -0.227 19
2.902 1.002 -0.43399999 55
3.0020001 1.0369999 -0.39899999 19
3.102 1.072 -0.36000001 15
3.2079999 1.1109999 -0.31900001 17
3.326 1.154 -0.27599999 16
3.4449999 1.198 -0.23 20
2.8970001 1.027 -0.43599999 57
2.9949999 1.063 -0.40099999 17
3.0940001 1.099 -0.36199999 17
3.1960001 1.136 -0.32100001 17
3.3199999 1.182 -0.27900001 17
3.438 1.227 -0.23199999 22
2.891 1.052 -0.43900001 55
2.9849999 1.087 -0.403 19
3.0869999 1.125 -0.36500001 17
3.1860001 1.1619999 -0.32300001 16
3.3069999 1.2079999 -0.28099999 18
3.425 1.2539999 -0.234 19
2.8840001 1.077 -0.44100001 22
2.977 1.112 -0.405 17
3.079 1.151 -0.36700001 18
3.1800001 1.1900001 -0.32600001 17
3.2980001 1.2359999 -0.28299999 18
3.421 1.284 -0.237 19
2.882 1.104 -0.44499999 21
2.97 1.137 -0.40799999 19
3.0780001 1.179 -0.37 17
3.1730001 1.217 -0.329 18
3.2909999 1.2640001 -0.28600001 17
3.408 1.311 -0.23999999 19
2.875 1.1289999 -0.447 22
2.9649999 1.164 -0.41 17
3.0599999 1.201 -0.37200001 19
3.165 1.243 -0.331 17
3.279 1.29 -0.28799999 17
3.402 1.34 -0.242 19
2.8659999 1.153 -0.449 21
2.9560001 1.188 -0.41299999 16
3.053 1.227 -0.37400001 15
3.1589999 1.271 -0.33399999 17
3.2720001 1.318 -0.29100001 17
3.3889999 1.367 -0.245 18
2.862 1.179 -0.45300001 22
2.947 1.2130001 -0.41499999 19
3.0510001 1.256 -0.37799999 17
3.1470001 1.296 -0.336 21
3.266 1.347 -0.294 18
3.3800001 1.395 -0.24699999 20
2.8499999 1.202 -0.454 20
2.937 1.237 -0.41800001 17
3.0409999 1.281 -0.38 18
3.1359999 1.321 -0.33899999 18
3.253 1.372 -0.296 17
3.372 1.423 -0.25 18
2.8410001 1.225 -0.45699999 22
2.9319999 1.2640001 -0.421 18
3.0339999 1.307 -0.38299999 18
3.1270001 1.347 -0.34099999 22
3.244 1.398 -0.29899999 17
3.3640001 1.451 -0.25299999 18
2.832 1.249 -0.45899999 20
2.921 1.2869999 -0.42300001 20
3.0250001 1.332 -0.38499999 18
3.1199999 1.374 -0.34400001 16
3.2320001 1.424 -0.301 15
3.352 1.478 -0.255 19
2.8269999 1.274 -0.463 20
2.914 1.312 -0.426 18
3.016 1.357 -0.38800001 19
3.1140001 1.401 -0.347 17
3.2279999 1.4529999 -0.30399999 17
3.3469999 1.508 -0.25799999 19
2.8169999 1.298 -0.465 20
2.905 1.336 -0.428 19
3.0050001 1.382 -0.38999999 18
3.1029999 1.426 -0.34900001 17
3.2190001 1.48 -0.30700001 17
3.339 1.536 -0.26100001 19
2.806 1.3200001 -0.46700001 20
2.898 1.3609999 -0.43099999 20
2.9960001 1.406 -0.39300001 18
3.092 1.451 -0.352 17
3.2130001 1.507 -0.31 16
3.3280001 1.563 -0.264 18
0 6.1440001 0 0
0 0 0 0
0 0 0 0
0 0 0 255
2.8010001 1.345 -0.47 20
2.8859999 1.383 -0.433 17
2.9879999 1.431 -0.396 17
3.092 1.48 -0.35499999 15
3.2090001 1.536 -0.31299999 14
3.3210001 1.591 -0.266 16
2.7869999 1.3660001 -0.472 24
2.878 1.408 -0.43599999 21
2.974 1.454 -0.398 22
3.075 1.502 -0.35699999 16
3.1960001 1.561 -0.315 17
3.312 1.618 -0.26899999 21
2.7850001 1.393 -0.47499999 23
2.8659999 1.4299999 -0.43799999 22
2.967 1.479 -0.40000001 20
3.0699999 1.529 -0.36000001 20
3.1889999 1.5880001 -0.31799999 17
3.299 1.6440001 -0.27200001 22
2.7720001 1.413 -0.477 20
2.859 1.455 -0.44100001 20
2.96 1.5039999 -0.403 22
3.062 1.5549999 -0.36300001 17
3.1760001 1.612 -0.31999999 16
3.293 1.6720001 -0.27399999 21
2.7720001 1.4400001 -0.48100001 21
2.852 1.479 -0.44299999 20
2.95 1.528 -0.405 20
3.0469999 1.577 -0.36500001 17
3.1670001 1.638 -0.32300001 15
3.2839999 1.699 -0.27700001 21
2.753 1.4579999 -0.48199999 24
2.849 1.506 -0.447 21
2.9460001 1.5549999 -0.40900001 19
3.04 1.602 -0.36700001 17
3.158 1.664 -0.32499999 15
3.277 1.727 -0.28 19
2.7460001 1.4809999 -0.484 24
2.8410001 1.529 -0.449 21
2.9330001 1.576 -0.41 21
3.033 1.628 -0.37 17
3.1530001 1.691 -0.32800001 15
3.27 1.7539999 -0.28200001 19
2.74 1.505 -0.48699999 27
2.8310001 1.551 -0.45100001 21
2.927 1.601 -0.41299999 19
3.0250001 1.653 -0.37200001 18
3.1429999 1.716 -0.331 17
3.257 1.779 -0.285 21
2.7290001 1.526 -0.48899999 24
2.8299999 1.5779999 -0.45500001 23
2.9170001 1.624 -0.41499999 19
3.0179999 1.678 -0.375 16
3.1329999 1.7410001 -0.333 15
3.2449999 1.803 -0.287 19
2.7219999 1.549 -0.49200001 27
2.809 1.594 -0.45500001 21
2.9070001 1.647 -0.41800001 19
3.007 1.701 -0.377 18
3.1289999 1.768 -0.336 17
3.24 1.83 -0.289 18
2.711 1.569 -0.49399999 23
2.799 1.6160001 -0.45699999 21
2.9000001 1.671 -0.41999999 25
3 1.725 -0.37900001 22
3.1210001 1.794 -0.338 15
3.234 1.858 -0.292 20
2.7060001 1.592 -0.49599999 22
2.7920001 1.6390001 -0.46000001 20
2.8970001 1.697 -0.42300001 20
2.9909999 1.749 -0.382 16
3.1129999 1.819 -0.34 16
3.224 1.883 -0.294 19
2.6989999 1.614 -0.49900001 28
2.793 1.666 -0.463 21
2.888 1.719 -0.42500001 19
2.977 1.7690001 -0.38299999 15
3.0999999 1.84 -0.34200001 17
3.211 1.905 -0.296 19
2.687 1.633 -0.5 29
2.7820001 1.686 -0.465 22
2.875 1.738 -0.426 22
2.9630001 1.788 -0.384 24
3.0869999 1.8609999 -0.34299999 16
3.2060001 1.931 -0.29800001 23
2.6789999 1.654 -0.50199997 36
2.7650001 1.702 -0.465 21
2.859 1.755 -0.42699999 39
2.961 1.8150001 -0.38699999 25
3.0829999 1.887 -0.34599999 17
3.197 1.956 -0.30000001 20
2.6730001 1.675 -0.50400001 33
2.7590001 1.723 -0.46700001 26
2.855 1.779 -0.43000001 25
2.9489999 1.835 -0.38800001 19
3.075 1.911 -0.34799999 16
3.1930001 1.982 -0.30199999 19
0 6.1440001 0 0
0 0 0 0
0 0 0 0
0 0 0 255
2.661 1.692 -0.505 26
2.75 1.744 -0.46900001 20
2.848 1.801 -0.43099999 32
2.957 1.8660001 -0.39199999 17
3.072 1.937 -0.34999999 15
3.187 2.0079999 -0.30399999 18
2.655 1.7130001 -0.50700003 20
2.7449999 1.766 -0.47099999 26
2.848 1.827 -0.43399999 21
2.9519999 1.89 -0.39399999 23
3.0650001 1.96 -0.352 17
3.1800001 2.0320001 -0.30599999 20
2.6459999 1.732 -0.50800002 35
2.743 1.79 -0.47400001 28
2.842 1.85 -0.43599999 23
2.948 1.914 -0.396 17
3.059 1.984 -0.35299999 16
3.1789999 2.0599999 -0.308 18
2.642 1.753 -0.51099998 28
2.744 1.8150001 -0.477 20
2.842 1.875 -0.43900001 21
2.9300001 1.929 -0.396 18
3.056 2.0079999 -0.35499999 17
3.1689999 2.0810001 -0.30899999 19
2.638 1.774 -0.51300001 24
2.733 1.832 -0.477 23
2.8329999 1.893 -0.44 19
2.9300001 1.954 -0.398 17
3.0510001 2.0309999 -0.35699999 18
3.164 2.105 -0.31 21
2.635 1.795 -0.514 26
2.7249999 1.85 -0.47799999 19
2.8310001 1.9170001 -0.442 21
2.931 1.979 -0.40099999 18
3.0510001 2.0580001 -0.359 18
3.161 2.1300001 -0.31200001 23
2.631 1.8150001 -0.51599997 25
2.727 1.874 -0.48100001 20
2.8180001 1.932 -0.442 20
2.9230001 1.999 -0.40099999 18
3.0409999 2.076 -0.359 19
3.155 2.152 -0.31299999 23
2.625 1.8329999 -0.51700002 27
2.724 1.895 -0.48300001 20
2.8199999 1.956 -0.44400001 23
2.9130001 2.016 -0.40200001 15
3.04 2.0999999 -0.361 18
3.151 2.175 -0.31400001 20
2.6210001 1.851 -0.51899999 22
2.7079999 1.906 -0.48199999 18
2.812 1.973 -0.44499999 19
2.915 2.0409999 -0.40400001 21
3.033 2.119 -0.361 18
3.1470001 2.197 -0.315 22
2.6199999 1.8710001 -0.51999998 24
2.7119999 1.9299999 -0.484 20
2.8080001 1.992 -0.44499999 18
2.9059999 2.0569999 -0.40400001 18
3.023 2.1359999 -0.36199999 19
3.1400001 2.2160001 -0.315 21
2.615 1.888 -0.52100003 22
2.704 1.944 -0.484 17
2.8069999 2.0120001 -0.447 23
2.902 2.076 -0.405 17
3.0209999 2.1570001 -0.36300001 15
3.1429999 2.2420001 -0.31600001 21
2.6140001 1.9069999 -0.523 20
2.7060001 1.966 -0.486 17
2.7980001 2.027 -0.447 22
2.904 2.099 -0.40599999 17
3.0220001 2.1800001 -0.36399999 17
3.1370001 2.26 -0.317 18
2.6059999 1.92 -0.523 22
2.7060001 1.985 -0.48800001 19
2.8010001 2.049 -0.44800001 17
2.904 2.119 -0.40700001 17
3.02 2.2 -0.36399999 16
3.131 2.2780001 -0.317 16
2.605 1.937 -0.52399999 25
2.704 2.003 -0.48800001 18
2.7969999 2.0650001 -0.449 17
2.901 2.1359999 -0.40799999 16
3.0109999 2.2130001 -0.36399999 15
3.1300001 2.2980001 -0.317 19
2.6040001 1.9529999 -0.52399999 19
2.6949999 2.013 -0.48699999 17
2.796 2.082 -0.449 19
2.8989999 2.1530001 -0.40799999 16
3.0090001 2.2309999 -0.36399999 15
3.1329999 2.3199999 -0.31799999 17
2.605 1.97 -0.52499998 18
2.697 2.0320001 -0.48899999 15
2.796 2.099 -0.44999999 18
2.8959999 2.1689999 -0.40799999 16
3.01 2.25 -0.36399999 14
3.128 2.336 -0.317 17
0 6.1440001 0 0
0 0 0 0
0 0 0 0
0 0 0 255
2.6040001 1.985 -0.52600002 23
2.6949999 2.046 -0.48899999 17
2.7950001 2.115 -0.44999999 17
2.8940001 2.184 -0.40799999 15
3.0109999 2.2679999 -0.36399999 15
3.1300001 2.355 -0.317 17
2.598 1.995 -0.52499998 24
2.697 2.062 -0.48899999 15
2.7909999 2.1270001 -0.449 17
2.8970001 2.2030001 -0.40799999 16
3.0050001 2.2809999 -0.36399999 15
3.131 2.3729999 -0.317 18
2.5969999 2.007 -0.52499998 19
2.691 2.0710001 -0.48800001 15
2.7909999 2.141 -0.449 19
2.8989999 2.2190001 -0.40799999 17
3.0139999 2.302 -0.36399999 16
3.125 2.385 -0.31600001 15
2.598 2.02 -0.52499998 14
2.6949999 2.0880001 -0.48899999 16
2.7920001 2.1559999 -0.449 17
2.892 2.227 -0.40700001 16
3.013 2.316 -0.36399999 16
3.125 2.3989999 -0.315 16
2.599 2.033 -0.52499998 20
2.691 2.096 -0.48800001 14
2.7909999 2.1670001 -0.449 16
2.895 2.2420001 -0.40700001 15
3.0090001 2.326 -0.36199999 14
3.1270001 2.415 -0.315 18
2.6010001 2.0450001 -0.52499998 17
2.6960001 2.1099999 -0.48800001 16
2.7980001 2.1830001 -0.449 18
2.8959999 2.2539999 -0.40599999 16
3.0139999 2.342 -0.36199999 14
3.1270001 2.427 -0.31400001 19
2.602 2.0539999 -0.52499998 21
2.6930001 2.118 -0.48699999 16
2.796 2.191 -0.44800001 20
2.895 2.2639999 -0.405 16
3.0120001 2.3510001 -0.361 16
3.131 2.441 -0.31299999 18
2.5969999 2.059 -0.523 24
2.6949999 2.128 -0.486 15
2.793 2.198 -0.447 18
2.9000001 2.276 -0.405 16
3.017 2.3640001 -0.36000001 15
3.125 2.447 -0.31099999 18
2.6010001 2.069 -0.523 19
2.694 2.1340001 -0.48500001 15
2.7909999 2.204 -0.44499999 16
2.8989999 2.283 -0.403 16
3.02 2.3740001 -0.359 14
3.1300001 2.4590001 -0.31 21
2.6010001 2.0739999 -0.52100003 21
2.6960001 2.142 -0.484 16
2.7969999 2.2149999 -0.44499999 17
2.902 2.2920001 -0.40200001 14
3.0220001 2.3829999 -0.35800001 15
3.1400001 2.474 -0.30899999 18
2.6070001 2.0840001 -0.52100003 19
2.6989999 2.1489999 -0.48300001 16
2.7980001 2.22 -0.44299999 15
2.9030001 2.2980001 -0.40099999 14
3.027 2.392 -0.35699999 16
3.1459999 2.484 -0.308 17
2.609 2.089 -0.51999998 18
2.704 2.1559999 -0.48199999 16
2.802 2.227 -0.442 15
2.905 2.3039999 -0.39899999 14
3.0309999 2.4000001 -0.35499999 15
3.1500001 2.4920001 -0.30599999 18
2.6129999 2.0940001 -0.51899999 17
2.7060001 2.1600001 -0.48100001 15
2.806 2.2320001 -0.44100001 15
2.9089999 2.309 -0.398 15
3.033 2.404 -0.354 15
3.148 2.493 -0.30399999 19
2.6159999 2.0969999 -0.51800001 18
2.7079999 2.1619999 -0.479 16
2.812 2.2379999 -0.44 15
2.9130001 2.3139999 -0.396 15
3.0369999 2.408 -0.352 14
3.1559999 2.5009999 -0.30199999 18
2.6159999 2.0969999 -0.51599997 17
2.714 2.1659999 -0.47799999 17
2.8150001 2.24 -0.43799999 15
2.914 2.3139999 -0.39399999 15
3.0420001 2.411 -0.34999999 14
3.1570001 2.5009999 -0.30000001 18
2.619 2.0969999 -0.514 17
2.721 2.1700001 -0.477 16
2.8199999 2.243 -0.43700001 15
2.9170001 2.3139999 -0.39199999 16
3.049 2.415 -0.34900001 15
3.161 2.503 -0.29800001 19
0 6.1440001 0 0
0 0 0 0
0 0 0 0
0 0 0 255
2.618 2.0940001 -0.51200002 17
2.7219999 2.168 -0.47499999 16
2.822 2.2409999 -0.435 15
2.9289999 2.3210001 -0.391 14
3.05 2.4130001 -0.34599999 15
3.168 2.5050001 -0.296 18
2.628 2.0969999 -0.51099998 18
2.7260001 2.1670001 -0.47299999 15
2.8280001 2.2409999 -0.433 15
2.9319999 2.319 -0.389 15
3.053 2.411 -0.34400001 15
3.1730001 2.5050001 -0.294 18
2.6359999 2.098 -0.50999999 17
2.7290001 2.164 -0.472 15
2.8340001 2.2409999 -0.43099999 14
2.9400001 2.3199999 -0.38800001 15
3.0610001 2.411 -0.34200001 16
3.177 2.5009999 -0.292 18
2.635 2.0899999 -0.50700003 18
2.7379999 2.164 -0.47 17
2.8380001 2.237 -0.42899999 16
2.9430001 2.3150001 -0.38600001 14
3.0639999 2.4059999 -0.34 15
3.1819999 2.497 -0.28999999 19
2.6440001 2.089 -0.50599998 17
2.734 2.1530001 -0.46700001 14
2.842 2.2320001 -0.42699999 16
2.9489999 2.3110001 -0.384 14
3.069 2.401 -0.338 16
3.1900001 2.4949999 -0.28799999 18
2.6500001 2.086 -0.505 17
2.744 2.152 -0.46599999 15
2.8499999 2.2290001 -0.426 16
2.9549999 2.306 -0.382 15
3.076 2.3970001 -0.336 18
3.1949999 2.4890001 -0.28600001 18
2.6559999 2.0799999 -0.50300002 21
2.7460001 2.1429999 -0.46399999 15
2.8540001 2.221 -0.42300001 16
2.96 2.299 -0.38 16
3.0829999 2.391 -0.33399999 16
3.204 2.484 -0.28400001 20
2.658 2.0699999 -0.5 20
2.7550001 2.138 -0.46200001 15
2.859 2.2130001 -0.42199999 16
2.9630001 2.289 -0.377 15
3.0869999 2.381 -0.331 14
3.2060001 2.4719999 -0.28099999 19
2.665 2.062 -0.49900001 17
2.76 2.1289999 -0.46000001 16
2.8610001 2.201 -0.419 15
2.971 2.2809999 -0.37599999 14
3.092 2.3710001 -0.329 16
3.2119999 2.4619999 -0.27900001 17
2.671 2.0539999 -0.49700001 15
2.7639999 2.118 -0.458 15
2.8670001 2.191 -0.417 16
2.9749999 2.2690001 -0.373 14
3.099 2.362 -0.32699999 14
3.2190001 2.451 -0.27700001 18
2.674 2.0409999 -0.49399999 16
2.779 2.1140001 -0.45699999 16
2.878 2.184 -0.41600001 15
2.9820001 2.2590001 -0.37099999 15
3.1070001 2.3510001 -0.32600001 15
3.221 2.4360001 -0.27399999 22
2.6819999 2.0320001 -0.493 17
2.779 2.099 -0.45500001 16
2.8859999 2.174 -0.414 17
2.99 2.2479999 -0.37 14
3.115 2.339 -0.324 15
3.2349999 2.428 -0.273 18
2.6900001 2.0220001 -0.49200001 18
2.79 2.0899999 -0.454 15
2.885 2.1559999 -0.41100001 15
2.993 2.2320001 -0.36700001 15
3.1159999 2.322 -0.32100001 14
3.2379999 2.411 -0.271 19
2.698 2.01 -0.49000001 18
2.7850001 2.0680001 -0.44999999 16
2.895 2.145 -0.41 16
3.0020001 2.22 -0.366 16
3.1259999 2.309 -0.31999999 16
3.2460001 2.3970001 -0.26899999 20
2.7019999 1.995 -0.48800001 16
2.8010001 2.0610001 -0.44999999 15
2.904 2.132 -0.40900001 18
3.0109999 2.2060001 -0.36399999 17
3.132 2.2920001 -0.31799999 16
3.256 2.382 -0.26699999 19
2.7090001 1.9809999 -0.48699999 16
2.8050001 2.0450001 -0.44800001 17
2.9100001 2.115 -0.40700001 16
3.0109999 2.1860001 -0.36199999 14
3.1359999 2.2739999 -0.31600001 16
3.2579999 2.3610001 -0.26499999 19
0 6.1440001 0 0
0 0 0 0
0 0 0 0
0 0 0 255
2.704 1.957 -0.48300001 17
2.8080001 2.026 -0.44600001 16
2.911 2.095 -0.40400001 19
3.0190001 2.1700001 -0.361 16
3.142 2.2550001 -0.31400001 18
3.267 2.345 -0.264 24
2.72 1.948 -0.48300001 15
2.8169999 2.0109999 -0.44400001 17
2.921 2.0810001 -0.40400001 18
3.027 2.152 -0.359 17
3.1459999 2.2349999 -0.31299999 16
3.267 2.3199999 -0.26199999 19
2.7249999 1.931 -0.48100001 17
2.8210001 1.993 -0.44299999 18
2.925 2.0610001 -0.40200001 18
3.0350001 2.135 -0.35800001 19
3.158 2.2190001 -0.31200001 17
3.2690001 2.296 -0.26100001 19
2.724 1.908 -0.47799999 17
2.822 1.97 -0.44 15
2.9289999 2.04 -0.40000001 18
3.036 2.1110001 -0.35600001 16
3.1559999 2.1919999 -0.31 17
3.2820001 2.279 -0.25999999 22
2.733 1.892 -0.47799999 17
2.832 1.954 -0.43900001 16
2.9319999 2.0179999 -0.398 16
3.0420001 2.0910001 -0.35499999 19
3.1670001 2.174 -0.30899999 19
3.286 2.2550001 -0.25799999 17
2.7409999 1.874 -0.477 17
2.8399999 1.9349999 -0.43900001 16
2.9349999 1.9960001 -0.39700001 19
3.0450001 2.0669999 -0.35299999 19
3.1689999 2.1489999 -0.30700001 18
3.2939999 2.2320001 -0.25799999 23
2.744 1.852 -0.47499999 17
2.8410001 1.9119999 -0.43700001 17
2.9430001 1.976 -0.396 18
3.053 2.046 -0.35299999 19
3.1730001 2.1240001 -0.30599999 18
3.299 2.207 -0.257 24
2.7460001 1.829 -0.47299999 16
2.8469999 1.891 -0.43599999 18
2.9489999 1.954 -0.39500001 18
3.056 2.0220001 -0.35100001 18
3.177 2.099 -0.30500001 19
3.296 2.177 -0.255 21
2.7520001 1.808 -0.472 20
2.849 1.8660001 -0.43399999 17
2.9519999 1.929 -0.39399999 18
3.0580001 1.9960001 -0.34999999 17
3.184 2.075 -0.30500001 18
3.3 2.1500001 -0.25400001 24
2.756 1.786 -0.47099999 19
2.8570001 1.846 -0.43399999 18
2.957 1.906 -0.39300001 17
3.0580001 1.967 -0.34900001 17
3.187 2.0480001 -0.30399999 18
3.3110001 2.1270001 -0.25400001 21
2.7609999 1.7640001 -0.47 17
2.8610001 1.822 -0.43200001 16
2.96 1.88 -0.39199999 15
3.0699999 1.947 -0.34900001 16
3.1849999 2.0179999 -0.303 16
3.309 2.096 -0.25299999 21
2.76 1.738 -0.46799999 20
2.8610001 1.796 -0.43099999 16
2.964 1.8559999 -0.391 16
3.0699999 1.919 -0.34799999 18
3.1889999 1.9910001 -0.30199999 16
3.3139999 2.0680001 -0.25299999 22
2.7650001 1.714 -0.46700001 19
2.8699999 1.774 -0.43099999 18
2.967 1.829 -0.38999999 15
3.076 1.893 -0.347 16
3.2 1.9680001 -0.30199999 17
3.3150001 2.0369999 -0.25299999 20
2.7709999 1.692 -0.46700001 19
2.875 1.75 -0.43099999 17
2.971 1.8049999 -0.38999999 16
3.075 1.864 -0.34599999 17
3.2049999 1.9400001 -0.30199999 17
3.3169999 2.007 -0.252 23
2.7750001 1.668 -0.46599999 20
2.8759999 1.723 -0.43000001 17
2.9719999 1.776 -0.389 19
3.0799999 1.8380001 -0.34599999 18
3.2060001 1.91 -0.30199999 17
3.3180001 1.976 -0.252 22
2.779 1.643 -0.46599999 18
2.8710001 1.692 -0.428 18
2.9760001 1.75 -0.38800001 17
3.0799999 1.808 -0.34599999 15
3.2030001 1.878 -0.301 20
3.3210001 1.946 -0.252 22
0 6.1440001 0 0
0 0 0 0
0 0 0 0
0 0 0 255
2.783 1.619 -0.465 18
2.8770001 1.668 -0.428 17
2.9779999 1.723 -0.38800001 18
3.0869999 1.7819999 -0.34599999 16
3.207 1.849 -0.301 19
3.323 1.914 -0.252 21
2.7850001 1.592 -0.46399999 21
2.8840001 1.6440001 -0.428 16
2.9849999 1.697 -0.38800001 18
3.085 1.751 -0.345 15
3.211 1.8200001 -0.301 19
3.325 1.883 -0.252 23
2.786 1.566 -0.46399999 20
2.8770001 1.612 -0.426 16
2.984 1.6670001 -0.38800001 18
3.089 1.723 -0.345 17
3.2130001 1.79 -0.30199999 18
3.326 1.851 -0.25299999 24
2.789 1.54 -0.46399999 18
2.8900001 1.591 -0.42699999 17
2.9860001 1.6390001 -0.38699999 18
3.0869999 1.692 -0.345 17
3.211 1.757 -0.301 18
3.3280001 1.819 -0.25299999 23
2.789 1.512 -0.463 21
2.8889999 1.561 -0.42699999 16
2.9849999 1.609 -0.38699999 16
3.0880001 1.661 -0.345 17
3.2130001 1.726 -0.30199999 19
3.3299999 1.788 -0.25400001 23
2.7969999 1.489 -0.46399999 18
2.8929999 1.535 -0.42699999 19
2.993 1.584 -0.38800001 17
3.096 1.635 -0.34599999 16
3.2130001 1.6950001 -0.30199999 18
3.3310001 1.755 -0.255 23
2.7969999 1.461 -0.463 23
2.892 1.506 -0.42699999 17
2.99 1.553 -0.38699999 18
3.0969999 1.605 -0.34599999 19
3.211 1.661 -0.30199999 19
3.332 1.722 -0.255 24
2.799 1.4349999 -0.463 21
2.8889999 1.476 -0.426 18
2.9960001 1.526 -0.38800001 18
3.0929999 1.572 -0.34599999 17
3.21 1.6289999 -0.303 19
3.3299999 1.688 -0.25600001 23
2.8039999 1.409 -0.463 23
2.8889999 1.447 -0.426 18
2.993 1.495 -0.38800001 19
3.096 1.543 -0.347 20
3.2090001 1.597 -0.303 18
3.3340001 1.6569999 -0.257 23
2.8080001 1.383 -0.46399999 18
2.891 1.419 -0.426 20
2.993 1.465 -0.38800001 20
3.0910001 1.51 -0.347 16
3.211 1.566 -0.30399999 19
3.3299999 1.622 -0.25799999 23
2.806 1.354 -0.463 20
2.8940001 1.392 -0.426 16
2.9949999 1.437 -0.389 19
3.0929999 1.48 -0.347 16
3.21 1.533 -0.30500001 18
3.325 1.586 -0.25799999 24
2.8080001 1.327 -0.46399999 18
2.8929999 1.363 -0.42699999 19
2.9990001 1.409 -0.38999999 18
3.0969999 1.452 -0.34799999 17
3.2090001 1.501 -0.30500001 20
3.329 1.5549999 -0.25999999 25
2.812 1.302 -0.46399999 18
2.8959999 1.336 -0.42699999 17
2.9949999 1.377 -0.389 17
3.0929999 1.419 -0.34900001 17
3.2090001 1.469 -0.30599999 20
3.322 1.5190001 -0.25999999 19
2.8110001 1.273 -0.46399999 16
2.898 1.308 -0.428 16
3.0020001 1.351 -0.391 18
3.099 1.391 -0.34999999 16
3.2079999 1.437 -0.30700001 18
3.323 1.4859999 -0.26199999 21
2.8110001 1.245 -0.46399999 16
2.8970001 1.279 -0.428 17
3 1.3200001 -0.391 16
3.092 1.357 -0.34999999 16
3.2079999 1.405 -0.308 19
3.319 1.451 -0.26300001 22
2.8110001 1.2180001 -0.465 18
2.8970001 1.25 -0.428 16
2.9949999 1.289 -0.391 16
3.095 1.3279999 -0.35100001 19
3.2060001 1.373 -0.30899999 21
3.3180001 1.418 -0.264 20
0 6.1440001 0 0
0 0 0 0
0 0 0 0
0 0 0 255
2.8150001 1.192 -0.465 17
2.902 1.224 -0.42899999 17
2.9979999 1.261 -0.39199999 17
3.098 1.299 -0.352 18
3.204 1.34 -0.31 19
3.3180001 1.385 -0.26499999 20
2.8139999 1.164 -0.46599999 18
2.902 1.196 -0.43000001 16
2.994 1.23 -0.39199999 15
3.095 1.268 -0.35299999 15
3.2079999 1.311 -0.31200001 21
3.3150001 1.352 -0.266 26
2.8210001 1.14 -0.46700001 17
2.9059999 1.169 -0.43099999 16
2.997 1.201 -0.39300001 16
3.0969999 1.238 -0.354 16
3.211 1.281 -0.31299999 21
3.3139999 1.319 -0.26800001 25
2.806 1.107 -0.465 21
2.9030001 1.14 -0.43099999 16
2.994 1.1720001 -0.39399999 15
3.096 1.2079999 -0.35499999 16
3.2030001 1.2460001 -0.31400001 22
3.3180001 1.288 -0.27000001 24
2.8099999 1.081 -0.46599999 49
2.9059999 1.113 -0.43200001 17
2.9920001 1.142 -0.39399999 16
3.0969999 1.178 -0.35600001 15
3.201 1.214 -0.315 19
3.312 1.253 -0.271 22
2.812 1.054 -0.46700001 51
2.904 1.084 -0.433 15
2.9949999 1.113 -0.396 16
3.092 1.146 -0.35699999 16
3.198 1.182 -0.31600001 22
3.3099999 1.22 -0.27200001 22
2.803 1.024 -0.46599999 49
2.8940001 1.052 -0.43200001 41
2.9960001 1.085 -0.39700001 16
3.0969999 1.118 -0.35800001 15
3.2030001 1.153 -0.317 17
3.312 1.189 -0.27399999 27
2.8080001 0.99900001 -0.46700001 50
2.8970001 1.026 -0.433 41
2.994 1.056 -0.39700001 17
3.095 1.0880001 -0.359 15
3.1960001 1.119 -0.31799999 18
3.3080001 1.156 -0.27500001 22
2.8139999 0.97399998 -0.46900001 50
2.9030001 1 -0.435 41
2.9860001 1.024 -0.39700001 25
3.089 1.056 -0.36000001 15
3.1949999 1.089 -0.31900001 19
3.309 1.124 -0.27599999 23
2.8069999 0.94499999 -0.46799999 51
2.8940001 0.97000003 -0.43399999 44
3.0020001 1.001 -0.40000001 46
3.0869999 1.026 -0.361 15
3.191 1.056 -0.31999999 17
3.303 1.09 -0.27700001 21
2.8169999 0.921 -0.47099999 17
2.8989999 0.94300002 -0.43599999 46
2.9979999 0.97100002 -0.40099999 44
3.085 0.99599999 -0.361 17
3.194 1.027 -0.322 17
3.3080001 1.061 -0.27900001 23
2.822 0.89600003 -0.472 16
2.8989999 0.91600001 -0.43700001 41
2.9879999 0.94 -0.40000001 45
3.0910001 0.96799999 -0.36300001 43
3.1960001 0.99800003 -0.32300001 18
3.309 1.03 -0.28099999 24
2.8180001 0.86900002 -0.472 16
2.9030001 0.88999999 -0.43799999 20
2.9960001 0.91500002 -0.40200001 43
3.0869999 0.93800002 -0.36399999 47
3.1900001 0.96600002 -0.324 17
3.303 0.99699998 -0.28200001 23
2.8199999 0.84299999 -0.47299999 15
2.9089999 0.86500001 -0.44 17
3 0.88800001 -0.40400001 45
3.085 0.90899998 -0.36500001 44
3.187 0.935 -0.32499999 38
3.303 0.96600002 -0.28400001 26
2.819 0.81599998 -0.47400001 14
2.905 0.83600003 -0.44 14
3 0.86000001 -0.405 19
3.0880001 0.88099998 -0.366 39
3.191 0.90600002 -0.32699999 49
3.3 0.93300003 -0.285 18
2.8199999 0.79000002 -0.47499999 13
2.905 0.80900002 -0.44100001 13
2.9920001 0.829 -0.405 12
3.089 0.852 -0.36700001 39
3.1830001 0.87400001 -0.32699999 45
3.293 0.90100002 -0.285 25
0 6.1440001 0 0
0 0 0 0
0 0 0 0
0 0 0 255
2.8169999 0.76300001 -0.47499999 13
2.902 0.78100002 -0.44100001 13
2.993 0.80199999 -0.40599999 11
3.0910001 0.824 -0.36899999 26
3.188 0.84600002 -0.329 45
3.2920001 0.87 -0.287 22
2.8180001 0.73699999 -0.47600001 15
2.904 0.755 -0.442 14
2.9949999 0.77499998 -0.40700001 12
3.0780001 0.792 -0.368 15
3.191 0.81699997 -0.33000001 45
3.2950001 0.83999997 -0.28799999 23
2.8169999 0.71100003 -0.47600001 15
2.9070001 0.72899997 -0.44299999 11
2.9920001 0.74599999 -0.40799999 12
3.079 0.764 -0.36899999 14
3.191 0.78799999 -0.33199999 44
3.2909999 0.80900002 -0.289 19
2.816 0.685 -0.477 15
2.9000001 0.70099998 -0.44299999 16
2.994 0.71899998 -0.40900001 11
3.076 0.73500001 -0.37 14
3.187 0.75700003 -0.33199999 16
3.2909999 0.77899998 -0.29100001 21
2.8180001 0.66000003 -0.47799999 14
2.905 0.676 -0.44499999 13
2.997 0.69300002 -0.41 13
3.0780001 0.70700002 -0.37200001 13
3.1889999 0.72899997 -0.33399999 15
3.286 0.74699998 -0.292 19
2.8169999 0.634 -0.47799999 14
2.905 0.64899999 -0.44499999 13
2.9890001 0.66399997 -0.41 12
3.075 0.67900002 -0.37200001 13
3.1830001 0.69800001 -0.33399999 16
3.29 0.71799999 -0.29300001 20
2.816 0.60799998 -0.479 14
2.904 0.62300003 -0.44600001 13
2.9949999 0.63800001 -0.41100001 12
3.0769999 0.65100002 -0.373 13
3.1889999 0.671 -0.336 15
3.2909999 0.68900001 -0.29499999 21
2.8199999 0.58399999 -0.47999999 15
2.905 0.597 -0.447 13
2.9979999 0.61199999 -0.41299999 12
3.0780001 0.62400001 -0.37400001 12
3.1830001 0.64099997 -0.336 16
3.29 0.65899998 -0.296 23
2.8210001 0.55900002 -0.48100001 14
2.9059999 0.57099998 -0.44800001 12
2.9990001 0.58499998 -0.414 11
3.0769999 0.59600002 -0.375 14
3.1830001 0.61199999 -0.33700001 15
3.286 0.62800002 -0.296 21
2.8169999 0.53299999 -0.48100001 13
2.8989999 0.54400003 -0.447 13
2.99 0.55699998 -0.41299999 16
3.0799999 0.56900001 -0.37599999 16
3.1860001 0.58399999 -0.33899999 15
3.29 0.59899998 -0.29800001 20
2.8169999 0.50800002 -0.48100001 13
2.9000001 0.51800001 -0.44800001 12
2.9920001 0.52999997 -0.414 12
3.0769999 0.54100001 -0.377 15
3.184 0.55599999 -0.34 20
3.2880001 0.56999999 -0.29899999 20
2.8110001 0.48199999 -0.48100001 13
2.901 0.493 -0.449 12
2.9960001 0.50400001 -0.41600001 10
3.076 0.514 -0.37799999 12
3.1819999 0.52700001 -0.34 16
3.2869999 0.54000002 -0.30000001 19
2.8180001 0.458 -0.48199999 14
2.904 0.46700001 -0.44999999 13
2.993 0.477 -0.41600001 11
3.0799999 0.48699999 -0.37900001 12
3.1819999 0.49900001 -0.34099999 15
3.2909999 0.51099998 -0.301 19
2.813 0.43200001 -0.48199999 16
2.905 0.442 -0.45100001 13
2.9949999 0.45100001 -0.417 11
3.0769999 0.45899999 -0.37900001 11
3.181 0.47099999 -0.34200001 17
3.2850001 0.48199999 -0.301 20
2.809 0.40700001 -0.48199999 20
2.904 0.417 -0.45100001 12
2.9979999 0.42500001 -0.41800001 11
3.0810001 0.433 -0.38 11
3.184 0.44299999 -0.34299999 15
3.289 0.45300001 -0.303 19
2.812 0.38299999 -0.48300001 19
2.9089999 0.39199999 -0.45300001 12
2.9990001 0.39899999 -0.419 12
3.0780001 0.405 -0.38100001 11
3.181 0.41499999 -0.34299999 17
3.286 0.42399999 -0.303 16
0 6.1440001 0 0
0 0 0 0
0 0 0 0
0 0 0 255
2.813 0.359 -0.484 16
2.908 0.366 -0.45300001 14
2.9979999 0.373 -0.419 11
3.079 0.37900001 -0.382 13
3.188 0.38800001 -0.345 13
3.2869999 0.396 -0.30399999 17
2.802 0.333 -0.48199999 19
2.901 0.34099999 -0.45199999 12
2.994 0.347 -0.419 11
3.0810001 0.35299999 -0.382 12
3.1800001 0.359 -0.345 15
3.289 0.36700001 -0.30500001 19
2.813 0.31 -0.484 14
2.888 0.31400001 -0.45100001 15
2.9890001 0.31999999 -0.419 13
3.0840001 0.32600001 -0.38299999 13
3.1849999 0.33199999 -0.34599999 15
3.29 0.33899999 -0.30599999 18
2.819 0.28600001 -0.486 14
2.9059999 0.29100001 -0.454 11
2.9979999 0.29499999 -0.421 10
3.076 0.29800001 -0.38299999 14
3.177 0.30399999 -0.34599999 15
3.2909999 0.31 -0.30700001 19
2.8150001 0.26199999 -0.486 15
2.9070001 0.266 -0.45500001 10
3.0020001 0.27000001 -0.42199999 9
3.0799999 0.27200001 -0.384 13
3.181 0.27700001 -0.347 17
3.2880001 0.28200001 -0.30700001 19
2.816 0.23800001 -0.486 13
2.904 0.241 -0.45500001 10
3 0.244 -0.42199999 10
3.082 0.24600001 -0.38499999 12
3.188 0.25 -0.34799999 14
3.2869999 0.25299999 -0.308 20
2.8139999 0.213 -0.486 11
2.9089999 0.21600001 -0.456 10
3 0.219 -0.42199999 9
3.0810001 0.22 -0.38499999 11
3.1889999 0.223 -0.34799999 13
3.299 0.226 -0.30899999 17
2.8239999 0.19 -0.48800001 11
2.914 0.192 -0.45699999 11
3.007 0.19400001 -0.42399999 10
3.085 0.19400001 -0.38600001 10
3.1889999 0.19599999 -0.34900001 13
3.2939999 0.198 -0.30899999 16
2.823 0.16599999 -0.48800001 11
2.9089999 0.167 -0.45699999 9
3.0079999 0.168 -0.42399999 10
3.0899999 0.168 -0.38699999 10
3.187 0.169 -0.34900001 13
3.299 0.17 -0.31 17
2.8169999 0.14300001 -0.48800001 13
2.9119999 0.14300001 -0.45699999 12
3.0009999 0.14300001 -0.42399999 11
3.086 0.142 -0.38699999 11
3.1819999 0.142 -0.34900001 13
3.2950001 0.142 -0.31 16
2.8269999 0.119 -0.49000001 14
2.9070001 0.118 -0.45699999 10
3.0020001 0.118 -0.42399999 10
3.089 0.116 -0.38800001 11
3.1889999 0.115 -0.34999999 13
3.296 0.115 -0.31099999 17
2.826 0.096000001 -0.49000001 11
2.9130001 0.093999997 -0.458 10
3.0050001 0.093000002 -0.42500001 10
3.089 0.090999998 -0.38800001 11
3.1900001 0.089000002 -0.35100001 13
3.2950001 0.086999997 -0.31099999 14
2.826 0.071999997 -0.49000001 15
2.9159999 0.07 -0.45899999 11
3.006 0.067000002 -0.42500001 11
3.0880001 0.064999998 -0.38800001 12
3.1919999 0.061999999 -0.35100001 13
3.2909999 0.059 -0.31099999 15
2.8239999 0.048 -0.49000001 14
2.9159999 0.046 -0.45899999 10
3.007 0.041999999 -0.426 10
3.095 0.039000001 -0.389 12
