# .PCD v0.7 - Point Cloud Data file format
VERSION 0.7
FIELDS x y z intensity
SIZE 4 4 4 4
TYPE F F F F
COUNT 1 1 1 1
WIDTH 1596
HEIGHT 1
VIEWPOINT 0 0 0 1 0 0 0
POINTS 1596
DATA ascii
3.095 2.0710001 -0.34 20
2.582 1.77 -0.53600001 25
2.6719999 1.825 -0.50099999 21
2.7650001 1.883 -0.465 18
2.8629999 1.944 -0.42500001 17
2.9719999 2.0150001 -0.38499999 18
3.092 2.0940001 -0.34099999 21
2.5799999 1.79 -0.53799999 31
2.665 1.842 -0.50199997 18
2.7620001 1.902 -0.46599999 17
2.858 1.964 -0.426 17
2.973 2.039 -0.38600001 17
3.0840001 2.1129999 -0.34200001 20
2.579 1.809 -0.53899997 25
2.661 1.86 -0.50300002 19
2.767 1.927 -0.46799999 19
2.852 1.982 -0.42699999 17
2.971 2.0599999 -0.38699999 17
3.0810001 2.1340001 -0.34299999 19
2.5710001 1.824 -0.54000002 24
2.6570001 1.877 -0.50400001 15
2.7520001 1.938 -0.46799999 17
2.8540001 2.0039999 -0.42899999 18
2.9679999 2.0799999 -0.38800001 16
3.079 2.155 -0.34400001 25
2.566 1.8380001 -0.54000002 21
2.6530001 1.893 -0.505 17
2.7539999 1.959 -0.46900001 18
2.848 2.02 -0.42899999 16
2.961 2.096 -0.38800001 16
3.079 2.178 -0.345 22
0 6.1440001 0 0
0 0 0 0
0 0 0 0
0 0 0 255
2.5639999 1.855 -0.54100001 21
2.655 1.913 -0.50599998 18
2.7539999 1.978 -0.47 19
2.848 2.04 -0.43000001 17
2.9579999 2.115 -0.389 17
3.073 2.1949999 -0.345 21
2.5599999 1.87 -0.542 22
2.652 1.929 -0.50700003 17
2.7490001 1.993 -0.47099999 18
2.845 2.0569999 -0.43099999 17
2.9590001 2.135 -0.38999999 16
3.072 2.214 -0.345 20
2.563 1.8890001 -0.54299998 19
2.648 1.943 -0.50700003 14
2.7520001 2.013 -0.472 18
2.842 2.073 -0.43099999 17
2.9579999 2.1530001 -0.38999999 19
3.072 2.234 -0.34599999 23
2.5650001 1.906 -0.54400003 18
2.655 1.965 -0.50999999 18
2.747 2.026 -0.47099999 18
2.8440001 2.0910001 -0.43099999 17
2.954 2.168 -0.38999999 16
3.0599999 2.243 -0.34400001 18
2.5580001 1.916 -0.54400003 18
2.6440001 1.972 -0.50800002 15
2.7460001 2.04 -0.472 18
2.8429999 2.1070001 -0.43200001 17
2.954 2.1849999 -0.38999999 17
3.0650001 2.2639999 -0.345 20
2.5569999 1.928 -0.54400003 19
2.6470001 1.988 -0.509 14
2.7420001 2.052 -0.47099999 18
2.8410001 2.1210001 -0.43099999 16
2.9579999 2.204 -0.391 17
3.062 2.2780001 -0.34400001 18
2.559 1.943 -0.54500002 19
2.645 2 -0.509 19
2.7409999 2.066 -0.47099999 18
2.836 2.132 -0.43099999 16
2.9489999 2.2119999 -0.389 14
3.062 2.2939999 -0.34400001 17
2.5599999 1.957 -0.54500002 19
2.641 2.01 -0.50800002 15
2.743 2.0799999 -0.47099999 18
2.8429999 2.1500001 -0.43099999 18
2.9519999 2.2279999 -0.389 15
3.0650001 2.3099999 -0.34400001 16
2.5569999 1.965 -0.54400003 17
2.6500001 2.0280001 -0.509 20
2.7390001 2.089 -0.47 16
2.835 2.1559999 -0.42899999 15
2.9530001 2.2409999 -0.38800001 15
3.062 2.3210001 -0.34200001 17
2.5569999 1.975 -0.54400003 17
2.642 2.0320001 -0.50700003 14
2.74 2.0999999 -0.47 18
2.8399999 2.171 -0.43000001 15
2.954 2.2539999 -0.38800001 17
3.069 2.339 -0.34200001 20
2.5580001 1.985 -0.54299998 20
2.651 2.049 -0.50800002 18
2.74 2.1099999 -0.46900001 19
2.8399999 2.181 -0.42899999 16
2.954 2.2650001 -0.38699999 15
3.0650001 2.3469999 -0.34099999 19
2.5610001 1.995 -0.54299998 18
2.6500001 2.056 -0.50700003 18
2.747 2.1240001 -0.47 18
2.8399999 2.1900001 -0.428 15
2.9560001 2.2750001 -0.38600001 16
3.072 2.3610001 -0.34 20
2.5599999 2.0009999 -0.542 20
2.6459999 2.0599999 -0.505 16
2.7449999 2.1300001 -0.46799999 17
2.8440001 2.201 -0.42699999 14
2.9560001 2.283 -0.38499999 16
3.0710001 2.369 -0.33899999 19
2.5599999 2.007 -0.54100001 20
2.6530001 2.0710001 -0.50599998 20
2.747 2.138 -0.46700001 17
2.8499999 2.2119999 -0.42699999 16
2.9590001 2.2920001 -0.38299999 17
3.0710001 2.3759999 -0.33700001 18
2.562 2.0139999 -0.54000002 21
2.655 2.0780001 -0.50400001 19
2.747 2.1429999 -0.46599999 16
2.8469999 2.2149999 -0.42500001 15
2.9619999 2.3 -0.382 16
3.0739999 2.385 -0.336 19
2.5650001 2.0190001 -0.53899997 18
2.655 2.082 -0.50300002 18
2.7509999 2.1500001 -0.465 16
2.849 2.22 -0.42300001 15
2.9630001 2.3050001 -0.38 16
3.082 2.395 -0.33399999 21
0 6.1440001 0 0
0 0 0 0
0 0 0 0
0 0 0 255
2.5699999 2.0250001 -0.53899997 18
2.661 2.089 -0.50199997 17
2.7590001 2.158 -0.46399999 16
2.855 2.227 -0.42199999 15
2.971 2.3139999 -0.38 16
3.085 2.4000001 -0.333 21
2.5680001 2.0250001 -0.53600001 19
2.6670001 2.0940001 -0.50199997 16
2.757 2.158 -0.46200001 16
2.8610001 2.233 -0.421 15
2.9749999 2.3180001 -0.37799999 16
3.086 2.402 -0.331 22
2.573 2.0280001 -0.53500003 18
2.6689999 2.095 -0.5 16
2.7620001 2.161 -0.46000001 15
2.8610001 2.233 -0.419 15
2.9749999 2.3180001 -0.37599999 15
3.0929999 2.408 -0.329 21
2.5739999 2.027 -0.53299999 17
2.6730001 2.0969999 -0.498 18
2.7650001 2.1619999 -0.45899999 16
2.869 2.2379999 -0.41800001 16
2.9790001 2.3199999 -0.37400001 15
3.098 2.4100001 -0.32699999 21
2.585 2.033 -0.53299999 17
2.6730001 2.095 -0.49599999 20
2.7709999 2.164 -0.45699999 17
2.872 2.237 -0.41600001 15
2.983 2.3199999 -0.37200001 16
3.105 2.4130001 -0.32600001 21
2.5799999 2.026 -0.52999997 17
2.681 2.0969999 -0.495 19
2.777 2.165 -0.456 17
2.8770001 2.2379999 -0.414 15
2.993 2.3239999 -0.37099999 15
3.112 2.414 -0.324 20
2.589 2.0280001 -0.52899998 20
2.6849999 2.0940001 -0.493 18
2.7809999 2.1630001 -0.454 17
2.885 2.2390001 -0.41299999 16
3.003 2.326 -0.36899999 15
3.1110001 2.408 -0.32100001 17
2.596 2.026 -0.528 17
2.6889999 2.0910001 -0.491 15
2.7850001 2.1589999 -0.45199999 17
2.885 2.2320001 -0.41 15
3.003 2.319 -0.36700001 15
3.118 2.4059999 -0.31900001 18
2.596 2.0190001 -0.52499998 15
2.6949999 2.0880001 -0.49000001 16
2.789 2.155 -0.44999999 17
2.8889999 2.227 -0.40799999 15
3.006 2.313 -0.36399999 16
3.1240001 2.402 -0.317 17
2.6040001 2.017 -0.52399999 18
2.6960001 2.0799999 -0.48699999 16
2.793 2.1489999 -0.44800001 17
2.898 2.224 -0.40599999 16
3.0150001 2.3110001 -0.36300001 15
3.1329999 2.3989999 -0.315 20
2.6070001 2.01 -0.52200001 20
2.697 2.0710001 -0.484 15
2.8010001 2.145 -0.44600001 19
2.904 2.2190001 -0.40400001 16
3.0179999 2.302 -0.36000001 17
3.1359999 2.3900001 -0.31299999 17
2.612 2.003 -0.51999998 21
2.71 2.0699999 -0.484 16
2.806 2.1370001 -0.44400001 18
2.9130001 2.2130001 -0.403 18
3.027 2.2969999 -0.359 16
3.145 2.385 -0.31099999 18
2.6199999 1.9960001 -0.51800001 15
2.714 2.0610001 -0.48199999 15
2.812 2.1300001 -0.442 17
2.9119999 2.2 -0.40000001 15
3.0309999 2.2869999 -0.35600001 15
3.1500001 2.375 -0.30899999 20
2.622 1.9859999 -0.51599997 23
2.7190001 2.0510001 -0.47999999 15
2.8210001 2.122 -0.44100001 16
2.9189999 2.191 -0.398 14
3.033 2.2739999 -0.354 14
3.1570001 2.3659999 -0.30700001 19
2.6289999 1.977 -0.514 15
2.7290001 2.0450001 -0.47799999 15
2.823 2.109 -0.43799999 17
2.9319999 2.1860001 -0.39700001 17
3.039 2.263 -0.352 15
3.1619999 2.3529999 -0.30399999 19
2.638 1.969 -0.51300001 15
2.734 2.033 -0.47600001 17
2.826 2.096 -0.43599999 17
2.9330001 2.171 -0.39399999 16
3.0510001 2.2550001 -0.34999999 16
3.171 2.342 -0.303 18
0 6.1440001 0 0
0 0 0 0
0 0 0 0
0 0 0 255
2.6389999 1.9529999 -0.50999999 17
2.74 2.0209999 -0.47499999 16
2.835 2.086 -0.43399999 17
2.937 2.1559999 -0.39199999 17
3.0539999 2.2390001 -0.34799999 15
3.174 2.326 -0.30000001 20
2.6440001 1.9400001 -0.50800002 14
2.7460001 2.0090001 -0.47299999 16
2.8429999 2.0739999 -0.433 18
2.9489999 2.1470001 -0.391 19
3.0680001 2.2309999 -0.347 19
3.184 2.3139999 -0.29899999 20
2.651 1.928 -0.50700003 16
2.7539999 1.9960001 -0.47099999 16
2.846 2.0569999 -0.43099999 17
2.9519999 2.1300001 -0.389 17
3.069 2.211 -0.345 17
3.187 2.2950001 -0.29699999 20
2.664 1.919 -0.50599998 18
2.7509999 1.975 -0.46799999 16
2.8510001 2.0409999 -0.42899999 18
2.96 2.1159999 -0.38699999 17
3.076 2.1960001 -0.34299999 18
3.191 2.276 -0.29499999 19
2.6689999 1.903 -0.50400001 17
2.7590001 1.961 -0.46700001 16
2.855 2.0239999 -0.42699999 18
2.957 2.0929999 -0.38499999 16
3.0799999 2.177 -0.34099999 18
3.2019999 2.2620001 -0.29300001 21
2.6719999 1.885 -0.50199997 15
2.7539999 1.937 -0.463 13
2.862 2.0079999 -0.42500001 19
2.9679999 2.0780001 -0.38299999 16
3.0899999 2.161 -0.34 22
3.2019999 2.2379999 -0.29100001 19
2.678 1.869 -0.5 16
2.7739999 1.9299999 -0.46399999 16
2.8670001 1.989 -0.42300001 17
2.974 2.0599999 -0.382 17
3.092 2.1389999 -0.338 17
3.2079999 2.2179999 -0.28999999 24
2.681 1.85 -0.498 18
2.7720001 1.9069999 -0.461 15
2.8770001 1.974 -0.42199999 17
2.9779999 2.039 -0.38 18
3.1029999 2.122 -0.33700001 18
3.211 2.1949999 -0.28799999 22
2.691 1.835 -0.498 19
2.7809999 1.89 -0.46000001 17
2.8800001 1.9529999 -0.421 17
2.983 2.0190001 -0.37900001 17
3.105 2.098 -0.33500001 19
3.217 2.1730001 -0.287 19
2.6900001 1.812 -0.495 19
2.7839999 1.869 -0.458 15
2.882 1.9299999 -0.419 19
2.987 1.997 -0.377 18
3.1070001 2.0739999 -0.333 17
3.223 2.151 -0.28600001 25
2.6989999 1.795 -0.49399999 19
2.796 1.853 -0.458 17
2.888 1.91 -0.41800001 18
2.993 1.975 -0.37599999 17
3.1210001 2.0580001 -0.333 19
3.227 2.1259999 -0.28400001 23
2.7019999 1.773 -0.493 18
2.803 1.834 -0.45699999 16
2.8970001 1.891 -0.417 17
2.994 1.95 -0.37400001 17
3.1159999 2.027 -0.331 18
3.2379999 2.105 -0.28400001 26
2.7079999 1.753 -0.49200001 21
2.806 1.811 -0.45500001 17
2.9000001 1.867 -0.41600001 17
3 1.928 -0.37400001 17
3.119 2.0020001 -0.33000001 18
3.24 2.079 -0.28299999 24
2.71 1.73 -0.49000001 19
2.803 1.784 -0.45300001 16
2.908 1.846 -0.41499999 18
3.0079999 1.906 -0.373 18
3.1289999 1.9809999 -0.33000001 20
3.2449999 2.053 -0.28200001 23
2.7160001 1.71 -0.48899999 17
2.812 1.7640001 -0.45300001 16
2.9059999 1.819 -0.41299999 19
3.006 1.878 -0.37099999 15
3.128 1.952 -0.32800001 17
3.2479999 2.0250001 -0.28099999 23
2.7149999 1.684 -0.48699999 16
2.816 1.7410001 -0.45199999 16
2.9100001 1.794 -0.412 16
3.0150001 1.8559999 -0.37099999 17
3.131 1.925 -0.32800001 17
3.2460001 1.994 -0.28 22
0 6.1440001 0 0
0 0 0 0
0 0 0 0
0 0 0 255
2.723 1.664 -0.48699999 19
2.816 1.715 -0.44999999 17
2.9170001 1.772 -0.412 18
3.0190001 1.831 -0.37099999 17
3.138 1.9 -0.32699999 18
3.2539999 1.969 -0.28 22
2.7279999 1.641 -0.486 19
2.816 1.689 -0.449 17
2.924 1.749 -0.412 19
3.0220001 1.804 -0.37 15
3.135 1.869 -0.32600001 16
3.2550001 1.939 -0.28 21
2.7309999 1.617 -0.48500001 18
2.823 1.666 -0.449 15
2.9219999 1.72 -0.41 17
3.0250001 1.777 -0.36899999 16
3.138 1.841 -0.32600001 17
3.256 1.908 -0.27900001 22
2.7360001 1.5930001 -0.484 21
2.826 1.641 -0.44800001 17
2.9219999 1.692 -0.40900001 18
3.0250001 1.748 -0.368 15
3.1440001 1.8150001 -0.32600001 17
3.2620001 1.881 -0.28 24
2.7360001 1.567 -0.48300001 18
2.8310001 1.6160001 -0.447 16
2.9319999 1.67 -0.41 16
3.0239999 1.719 -0.368 18
3.1459999 1.786 -0.32600001 18
3.263 1.85 -0.27900001 22
2.7420001 1.544 -0.48300001 20
2.8299999 1.589 -0.44600001 18
2.9319999 1.642 -0.40900001 18
3.026 1.691 -0.36700001 17
3.1459999 1.756 -0.32499999 17
3.2679999 1.822 -0.28 23
2.7490001 1.522 -0.48300001 21
2.8340001 1.564 -0.44600001 18
2.9349999 1.615 -0.40900001 17
3.029 1.663 -0.36700001 18
3.148 1.726 -0.32499999 17
3.266 1.789 -0.27900001 24
2.75 1.495 -0.48199999 23
2.8380001 1.538 -0.44600001 19
2.937 1.587 -0.40799999 18
3.036 1.638 -0.368 18
3.152 1.697 -0.32499999 19
3.27 1.7589999 -0.28 23
2.7579999 1.472 -0.48300001 20
2.8429999 1.513 -0.44600001 19
2.938 1.559 -0.40799999 17
3.033 1.6059999 -0.36700001 15
3.1530001 1.6670001 -0.32600001 17
3.267 1.726 -0.28 23
2.7490001 1.441 -0.48100001 27
2.8380001 1.483 -0.44499999 19
2.938 1.531 -0.40799999 19
3.036 1.5779999 -0.36700001 17
3.154 1.637 -0.32600001 17
3.267 1.694 -0.28 21
2.7579999 1.419 -0.48199999 17
2.8399999 1.456 -0.44499999 18
2.9419999 1.5039999 -0.40799999 23
3.0380001 1.55 -0.368 16
3.1500001 1.604 -0.32600001 18
3.2679999 1.6619999 -0.28099999 25
2.7590001 1.392 -0.48100001 18
2.8499999 1.433 -0.44600001 18
2.9430001 1.476 -0.40799999 19
3.0380001 1.52 -0.368 19
3.155 1.575 -0.32600001 20
3.2690001 1.631 -0.28099999 23
2.76 1.365 -0.48100001 22
2.849 1.405 -0.44499999 18
2.9530001 1.452 -0.40900001 19
3.0480001 1.495 -0.36899999 18
3.1500001 1.5420001 -0.32600001 18
3.263 1.595 -0.28200001 22
2.7690001 1.3430001 -0.48199999 17
2.8529999 1.378 -0.44600001 18
2.9419999 1.4170001 -0.40799999 19
3.0409999 1.462 -0.36899999 18
3.1559999 1.5140001 -0.32699999 19
3.2690001 1.566 -0.28299999 23
2.7639999 1.313 -0.48100001 18
2.855 1.351 -0.44600001 19
2.9460001 1.39 -0.40900001 19
3.039 1.431 -0.368 18
3.154 1.482 -0.32800001 19
3.2650001 1.531 -0.28299999 21
2.7679999 1.2869999 -0.48100001 19
2.8529999 1.322 -0.44600001 16
2.941 1.359 -0.40799999 18
3.0420001 1.402 -0.36899999 19
3.1530001 1.45 -0.32800001 18
3.263 1.498 -0.28400001 24
0 6.1440001 0 0
0 0 0 0
0 0 0 0
0 0 0 255
2.773 1.263 -0.48199999 18
2.8559999 1.295 -0.44600001 16
2.95 1.334 -0.41 17
3.0450001 1.373 -0.37 16
3.1489999 1.4170001 -0.329 18
3.2639999 1.466 -0.285 19
2.7739999 1.2359999 -0.48199999 17
2.858 1.268 -0.447 17
2.9460001 1.303 -0.40900001 18
3.0480001 1.345 -0.37099999 17
3.1559999 1.39 -0.33000001 17
3.2639999 1.434 -0.28600001 19
2.773 1.2079999 -0.48199999 17
2.859 1.2410001 -0.447 14
2.95 1.277 -0.41 17
3.046 1.3150001 -0.37099999 16
3.154 1.358 -0.331 22
3.2620001 1.402 -0.287 22
2.7690001 1.1799999 -0.48199999 16
2.8570001 1.212 -0.447 15
2.9489999 1.247 -0.41100001 17
3.05 1.286 -0.37200001 16
3.154 1.327 -0.33199999 19
3.26 1.369 -0.28799999 21
2.773 1.154 -0.48199999 17
2.8629999 1.187 -0.44800001 16
2.9460001 1.217 -0.41100001 18
3.0439999 1.2539999 -0.37200001 16
3.1500001 1.295 -0.33199999 25
3.257 1.336 -0.289 24
2.773 1.127 -0.48300001 22
2.858 1.1569999 -0.44800001 19
2.948 1.189 -0.412 16
3.043 1.224 -0.373 15
3.1489999 1.2640001 -0.333 17
3.2579999 1.304 -0.28999999 21
2.7690001 1.099 -0.48199999 51
2.8540001 1.128 -0.44800001 16
2.9489999 1.161 -0.412 16
3.039 1.193 -0.373 17
3.142 1.23 -0.333 18
3.2620001 1.274 -0.292 26
2.7679999 1.072 -0.48199999 51
2.859 1.102 -0.449 16
2.948 1.132 -0.41299999 16
3.0439999 1.166 -0.375 15
3.1489999 1.202 -0.33500001 19
3.2579999 1.2410001 -0.292 21
2.7639999 1.043 -0.48199999 52
2.855 1.073 -0.449 39
2.951 1.105 -0.414 17
3.0469999 1.137 -0.37599999 16
3.1459999 1.171 -0.336 20
3.2590001 1.21 -0.294 24
2.766 1.017 -0.48300001 51
2.852 1.044 -0.449 42
2.944 1.074 -0.414 16
3.0469999 1.108 -0.377 14
3.148 1.141 -0.33700001 17
3.2539999 1.176 -0.29499999 20
2.7690001 0.99199998 -0.484 50
2.8540001 1.018 -0.44999999 43
2.9400001 1.045 -0.414 26
3.0450001 1.0779999 -0.37799999 14
3.1440001 1.11 -0.338 17
3.2539999 1.145 -0.296 19
2.763 0.96399999 -0.48300001 48
2.855 0.991 -0.45100001 44
2.947 1.0190001 -0.41600001 45
3.0420001 1.048 -0.37799999 17
3.138 1.0779999 -0.33899999 19
3.2520001 1.114 -0.29699999 21
2.773 0.94099998 -0.48500001 18
2.8599999 0.96600002 -0.45199999 47
2.9530001 0.99299997 -0.417 46
3.0369999 1.017 -0.37900001 16
3.1459999 1.05 -0.34 18
3.25 1.082 -0.29899999 23
2.7780001 0.91600001 -0.48699999 16
2.855 0.93699998 -0.45199999 46
2.944 0.96200001 -0.417 45
3.049 0.99199998 -0.38100001 44
3.1400001 1.018 -0.34099999 19
3.2520001 1.051 -0.30000001 24
2.7820001 0.89099997 -0.48800001 15
2.858 0.91100001 -0.45300001 20
2.944 0.93400002 -0.41800001 44
3.039 0.95999998 -0.38100001 45
3.1359999 0.98699999 -0.34200001 19
3.244 1.018 -0.301 22
2.7739999 0.86199999 -0.48699999 17
2.855 0.88300002 -0.45300001 15
2.9460001 0.90700001 -0.419 45
3.0439999 0.93300003 -0.38299999 46
3.135 0.958 -0.34299999 32
3.243 0.98699999 -0.30199999 22
0 6.1440001 0 0
0 0 0 0
0 0 0 0
0 0 0 255
2.779 0.838 -0.48800001 18
2.862 0.85799998 -0.45500001 14
2.951 0.88099998 -0.41999999 29
3.0420001 0.90399998 -0.38299999 48
3.142 0.93000001 -0.345 53
3.2490001 0.95899999 -0.30399999 23
2.773 0.81 -0.48800001 16
2.868 0.83399999 -0.45699999 15
2.951 0.85299999 -0.421 15
3.0439999 0.87599999 -0.38499999 47
3.1389999 0.89999998 -0.34599999 53
3.2409999 0.926 -0.30500001 27
2.7780001 0.78600001 -0.49000001 16
2.8599999 0.80500001 -0.456 15
2.9519999 0.82599998 -0.42199999 12
3.0439999 0.84799999 -0.38600001 36
3.1370001 0.87 -0.347 44
3.2460001 0.89700001 -0.30599999 47
2.779 0.75999999 -0.49000001 13
2.8599999 0.778 -0.45699999 14
2.951 0.79900002 -0.42300001 12
3.0380001 0.81800002 -0.38600001 14
3.1440001 0.84299999 -0.34900001 43
3.24 0.86500001 -0.30700001 54
2.7750001 0.73400003 -0.49000001 14
2.8659999 0.75300002 -0.45899999 12
2.9449999 0.76999998 -0.42300001 12
3.036 0.78899997 -0.38699999 13
3.138 0.81199998 -0.34900001 45
3.24 0.83499998 -0.30899999 56
2.78 0.70999998 -0.49200001 14
2.8629999 0.72600001 -0.45899999 12
2.951 0.74400002 -0.42500001 12
3.033 0.76099998 -0.38699999 13
3.141 0.78399998 -0.35100001 16
3.2360001 0.80400002 -0.30899999 54
2.7780001 0.68300003 -0.49200001 13
2.8659999 0.70099998 -0.46000001 12
2.9530001 0.71700001 -0.426 11
3.0309999 0.73199999 -0.38800001 15
3.142 0.755 -0.352 16
3.237 0.77399999 -0.31099999 49
2.78 0.65799999 -0.493 14
2.865 0.67400002 -0.461 15
2.9530001 0.69 -0.42699999 13
3.0309999 0.70499998 -0.389 13
3.132 0.72399998 -0.352 16
3.244 0.74599999 -0.31299999 20
2.7809999 0.63300002 -0.49399999 14
2.8629999 0.648 -0.461 12
2.957 0.66500002 -0.428 12
3.0339999 0.67799997 -0.38999999 12
3.131 0.69599998 -0.35299999 18
3.2390001 0.71600002 -0.31400001 19
2.7750001 0.60699999 -0.493 14
2.862 0.62199998 -0.46200001 13
2.9530001 0.63700002 -0.42899999 12
3.029 0.64899999 -0.391 13
3.138 0.66900003 -0.35499999 14
3.2390001 0.68599999 -0.315 17
2.779 0.583 -0.495 15
2.869 0.597 -0.46399999 13
2.9489999 0.60900003 -0.42899999 11
3.029 0.62199998 -0.39199999 11
3.1370001 0.63999999 -0.35600001 16
3.2379999 0.65700001 -0.31600001 17
2.779 0.55800003 -0.495 12
2.8629999 0.56999999 -0.463 13
2.95 0.583 -0.43000001 12
3.036 0.59600002 -0.39300001 11
3.132 0.611 -0.35600001 13
3.2360001 0.62699997 -0.317 19
2.7820001 0.53299999 -0.49599999 12
2.8629999 0.54500002 -0.46399999 14
2.9530001 0.55699998 -0.43099999 12
3.033 0.56800002 -0.39399999 14
3.138 0.58399999 -0.35800001 15
3.2379999 0.59799999 -0.31799999 19
2.7809999 0.50800002 -0.49599999 15
2.862 0.51899999 -0.46399999 9
2.9530001 0.53100002 -0.43200001 10
3.0350001 0.54100001 -0.39500001 13
3.1340001 0.55500001 -0.35800001 17
3.2360001 0.56900001 -0.31900001 18
2.777 0.48300001 -0.49599999 14
2.8599999 0.493 -0.465 11
2.95 0.50400001 -0.43200001 13
3.0280001 0.51300001 -0.39500001 11
3.1359999 0.52700001 -0.359 15
3.2420001 0.54100001 -0.31999999 20
2.7750001 0.458 -0.49700001 15
2.8599999 0.46700001 -0.465 12
2.9519999 0.47799999 -0.433 12
3.029 0.486 -0.396 11
3.1400001 0.5 -0.361 15
3.2420001 0.51200002 -0.32100001 19
0 6.1440001 0 0
0 0 0 0
0 0 0 0
0 0 0 255
2.779 0.43399999 -0.498 15
2.8640001 0.44299999 -0.46700001 12
2.9519999 0.45199999 -0.433 12
3.033 0.46000001 -0.39700001 15
3.132 0.47099999 -0.36000001 14
3.2390001 0.48300001 -0.322 19
2.7809999 0.41 -0.49900001 16
2.8640001 0.41800001 -0.46700001 13
2.9530001 0.426 -0.43399999 11
3.0320001 0.433 -0.398 11
3.1370001 0.44400001 -0.36199999 15
3.2409999 0.454 -0.32300001 19
2.7739999 0.384 -0.498 14
2.865 0.39199999 -0.46799999 12
2.954 0.40000001 -0.435 11
3.0369999 0.40700001 -0.39899999 12
3.1359999 0.41600001 -0.36199999 14
3.2379999 0.42500001 -0.324 17
2.776 0.36000001 -0.49900001 14
2.865 0.36700001 -0.46799999 12
2.954 0.37400001 -0.43599999 12
3.036 0.38100001 -0.39899999 11
3.1359999 0.389 -0.36300001 15
3.2349999 0.39700001 -0.324 18
2.7739999 0.336 -0.49900001 18
2.859 0.34200001 -0.46799999 13
2.95 0.34799999 -0.43599999 12
3.0380001 0.354 -0.40000001 12
3.1400001 0.36199999 -0.36399999 16
3.2379999 0.36899999 -0.32499999 17
2.77 0.31099999 -0.498 15
2.846 0.31600001 -0.46599999 15
2.9449999 0.322 -0.435 13
3.0320001 0.32800001 -0.40000001 13
3.135 0.33399999 -0.36399999 14
3.2409999 0.34099999 -0.32600001 16
2.779 0.289 -0.50099999 16
2.8659999 0.29300001 -0.47 9
2.9449999 0.29699999 -0.43599999 13
3.033 0.30199999 -0.40099999 16
3.1300001 0.30700001 -0.36500001 15
3.2409999 0.31299999 -0.32699999 18
2.779 0.26499999 -0.50099999 13
2.8610001 0.26800001 -0.47 11
2.954 0.27200001 -0.43799999 10
3.0380001 0.27599999 -0.40200001 10
3.1199999 0.27900001 -0.36399999 24
3.2409999 0.285 -0.32800001 19
2.7809999 0.241 -0.50199997 15
2.8729999 0.245 -0.472 11
2.957 0.24699999 -0.43900001 10
3.0380001 0.249 -0.403 11
3.1340001 0.25299999 -0.366 13
3.2360001 0.257 -0.32800001 23
2.7820001 0.21699999 -0.50199997 12
2.875 0.22 -0.47299999 11
2.9560001 0.222 -0.43900001 10
3.039 0.22400001 -0.403 12
3.1329999 0.226 -0.366 14
3.2420001 0.229 -0.329 17
2.783 0.193 -0.50300002 13
2.869 0.19499999 -0.472 12
2.96 0.197 -0.44 10
3.036 0.198 -0.403 10
3.132 0.199 -0.36700001 15
3.2420001 0.20200001 -0.329 16
2.777 0.17 -0.50199997 13
2.862 0.17 -0.47099999 11
2.96 0.17200001 -0.44 10
3.043 0.17200001 -0.405 11
3.1359999 0.17299999 -0.368 12
3.243 0.17399999 -0.33000001 16
2.7850001 0.146 -0.50400001 15
2.8670001 0.146 -0.47299999 12
2.961 0.146 -0.44100001 10
3.0369999 0.146 -0.40400001 11
3.138 0.146 -0.368 12
3.243 0.146 -0.33000001 16
2.786 0.122 -0.50400001 13
2.872 0.122 -0.47400001 10
2.9560001 0.121 -0.44100001 10
3.0450001 0.12 -0.40599999 11
3.1359999 0.119 -0.36899999 13
3.233 0.118 -0.33000001 14
2.7809999 0.098999999 -0.50400001 11
2.872 0.097999997 -0.47400001 11
2.964 0.096000001 -0.442 9
3.039 0.093999997 -0.405 11
3.141 0.093000002 -0.37 13
3.243 0.090999998 -0.331 14
2.7869999 0.075000003 -0.505 13
2.8699999 0.072999999 -0.47400001 12
2.9660001 0.071000002 -0.44299999 10
3.04 0.068999998 -0.40599999 11
3.138 0.066 -0.37 13
3.247 0.064000003 -0.33199999 16
0 6.1440001 0 0
0 0 0 0
0 0 0 0
0 0 0 255
2.7839999 0.052000001 -0.505 11
2.8729999 0.050000001 -0.47499999 11
2.9649999 0.046999998 -0.44299999 11
3.049 0.044 -0.40700001 13
3.1359999 0.039999999 -0.37 14
3.2460001 0.037 -0.33199999 17
2.7880001 0.028999999 -0.50599998 12
2.8699999 0.026000001 -0.47499999 11
2.96 0.022 -0.442 11
3.0439999 0.017999999 -0.40700001 12
3.142 0.014 -0.37099999 14
3.244 0.0089999996 -0.33199999 16
2.7909999 0.0060000001 -0.50700003 11
2.875 0.001 -0.47600001 11
2.967 -0.0020000001 -0.44400001 10
3.049 -0.0070000002 -0.40799999 11
3.141 -0.011 -0.37099999 15
3.2509999 -0.017000001 -0.333 17
2.789 -0.017000001 -0.50599998 13
2.882 -0.021 -0.477 10
2.964 -0.027000001 -0.44400001 12
3.052 -0.032000002 -0.40799999 11
3.141 -0.037999999 -0.37099999 14
3.2550001 -0.044 -0.33399999 17
2.7950001 -0.039999999 -0.50800002 13
2.8770001 -0.045000002 -0.477 10
2.9649999 -0.050999999 -0.44400001 12
3.0510001 -0.057 -0.40900001 12
3.152 -0.064000003 -0.373 13
3.2509999 -0.07 -0.33399999 17
2.7969999 -0.063000001 -0.509 13
2.8800001 -0.068999998 -0.477 10
2.9649999 -0.075000003 -0.44400001 9
3.0480001 -0.082000002 -0.40799999 13
3.1459999 -0.089000002 -0.37200001 14
3.2520001 -0.097000003 -0.33399999 17
2.789 -0.085000001 -0.50700003 14
2.872 -0.092 -0.47600001 11
2.9679999 -0.1 -0.44499999 11
3.049 -0.107 -0.40900001 10
3.148 -0.115 -0.373 15
3.2639999 -0.124 -0.336 18
2.7909999 -0.108 -0.50800002 14
2.8859999 -0.116 -0.479 13
2.9649999 -0.124 -0.44499999 11
3.053 -0.132 -0.41 14
3.152 -0.141 -0.37400001 15
3.2550001 -0.15099999 -0.33500001 18
2.7969999 -0.131 -0.50999999 14
2.882 -0.14 -0.47799999 12
2.9660001 -0.148 -0.44499999 13
3.049 -0.15700001 -0.40900001 13
3.155 -0.167 -0.37400001 17
3.2579999 -0.177 -0.336 18
2.7980001 -0.154 -0.50999999 15
2.8840001 -0.163 -0.479 13
2.971 -0.17200001 -0.44600001 10
3.059 -0.182 -0.41100001 13
3.1530001 -0.192 -0.37400001 15
3.26 -0.204 -0.336 20
2.7920001 -0.176 -0.509 13
2.8870001 -0.18700001 -0.47999999 12
2.971 -0.19599999 -0.447 12
3.056 -0.206 -0.41100001 15
3.1530001 -0.21799999 -0.37400001 15
3.2639999 -0.23100001 -0.33700001 18
2.802 -0.199 -0.51099998 13
2.8840001 -0.20900001 -0.47999999 12
2.9719999 -0.22 -0.447 12
3.059 -0.23100001 -0.412 14
3.1570001 -0.243 -0.375 15
3.263 -0.257 -0.33700001 19
2.796 -0.222 -0.51099998 13
2.888 -0.233 -0.48100001 13
2.973 -0.244 -0.44800001 12
3.053 -0.255 -0.41100001 12
3.151 -0.26800001 -0.375 16
3.263 -0.28299999 -0.33700001 18
2.796 -0.244 -0.51099998 16
2.885 -0.25600001 -0.48100001 12
2.974 -0.26800001 -0.44800001 13
3.0580001 -0.28 -0.412 13
3.165 -0.29499999 -0.377 17
3.2650001 -0.30899999 -0.338 19
2.7980001 -0.26699999 -0.51200002 14
2.888 -0.27900001 -0.48199999 13
2.974 -0.292 -0.44800001 12
3.0580001 -0.30399999 -0.41299999 13
3.1659999 -0.31999999 -0.377 16
3.2639999 -0.33500001 -0.338 19
2.7939999 -0.289 -0.51200002 13
2.881 -0.30199999 -0.48100001 14
2.9749999 -0.31600001 -0.449 14
3.056 -0.329 -0.41299999 12
3.1630001 -0.345 -0.377 17
3.266 -0.361 -0.338 22
0 6.1440001 0 0
0 0 0 0
0 0 0 0
0 0 0 255
2.7980001 -0.31099999 -0.51300001 16
2.885 -0.32499999 -0.48199999 12
2.977 -0.33899999 -0.44999999 12
3.059 -0.35299999 -0.414 14
3.164 -0.37 -0.37799999 17
3.256 -0.38600001 -0.338 33
2.7969999 -0.333 -0.51300001 16
2.882 -0.347 -0.48199999 13
2.9719999 -0.36199999 -0.44999999 13
3.0599999 -0.377 -0.414 16
3.158 -0.39399999 -0.377 20
3.266 -0.41299999 -0.33899999 26
2.7950001 -0.35499999 -0.51300001 15
2.8829999 -0.37 -0.48300001 13
2.9749999 -0.38600001 -0.44999999 15
3.053 -0.40000001 -0.414 13
3.1589999 -0.419 -0.37799999 18
3.2650001 -0.43799999 -0.34 26
2.79 -0.37599999 -0.51300001 18
2.881 -0.39199999 -0.48300001 14
2.9690001 -0.40799999 -0.44999999 15
3.053 -0.42399999 -0.414 14
3.145 -0.442 -0.377 32
3.257 -0.46200001 -0.33899999 30
2.7969999 -0.398 -0.51499999 16
2.8840001 -0.414 -0.484 14
2.971 -0.43099999 -0.45100001 17
3.059 -0.44800001 -0.41600001 18
3.1489999 -0.46599999 -0.37799999 31
3.2579999 -0.48699999 -0.34 40
2.79 -0.419 -0.51499999 16
2.882 -0.43700001 -0.48500001 15
2.961 -0.45300001 -0.44999999 26
3.046 -0.47 -0.41499999 24
3.1489999 -0.491 -0.37900001 21
3.2579999 -0.51300001 -0.34 33
2.7950001 -0.44100001 -0.51599997 28
2.8770001 -0.458 -0.48500001 14
2.961 -0.47499999 -0.45100001 17
3.046 -0.493 -0.41499999 29
3.1500001 -0.51499999 -0.37900001 27
3.2650001 -0.53899997 -0.34200001 22
2.7880001 -0.461 -0.51599997 23
2.868 -0.47799999 -0.484 17
2.9519999 -0.49700001 -0.44999999 19
3.0420001 -0.51599997 -0.41499999 30
3.1559999 -0.54000002 -0.38100001 20
3.263 -0.56300002 -0.34200001 24
2.7809999 -0.48199999 -0.51499999 18
2.8770001 -0.50199997 -0.486 14
2.961 -0.52100003 -0.45300001 24
3.052 -0.54100001 -0.41800001 34
3.1570001 -0.56400001 -0.382 21
3.2650001 -0.588 -0.34299999 25
2.789 -0.50400001 -0.51800001 31
2.8800001 -0.52399999 -0.48800001 15
2.957 -0.542 -0.45300001 32
3.05 -0.56300002 -0.41800001 23
3.1600001 -0.588 -0.38299999 19
3.2690001 -0.61400002 -0.345 25
2.793 -0.52600002 -0.51999998 16
2.881 -0.546 -0.48899999 15
2.964 -0.56599998 -0.45500001 25
3.056 -0.58700001 -0.41999999 18
3.161 -0.61199999 -0.384 21
3.263 -0.63700002 -0.345 25
2.7920001 -0.54699999 -0.52100003 27
2.8800001 -0.56699997 -0.49000001 16
2.9619999 -0.588 -0.456 28
3.05 -0.60900003 -0.41999999 16
3.1600001 -0.63599998 -0.38499999 20
3.2639999 -0.66100001 -0.34599999 25
2.796 -0.56800002 -0.52200001 20
2.881 -0.58899999 -0.491 21
2.9649999 -0.61000001 -0.45699999 17
3.0550001 -0.63200003 -0.42199999 18
3.1630001 -0.65899998 -0.38699999 24
3.2679999 -0.68599999 -0.34799999 24
2.7950001 -0.58899999 -0.52399999 18
2.8789999 -0.60900003 -0.49200001 18
2.9619999 -0.63099998 -0.458 16
3.056 -0.65499997 -0.42399999 18
3.165 -0.68199998 -0.38800001 20
3.2639999 -0.70899999 -0.34799999 23
2.789 -0.60799998 -0.52399999 16
2.8729999 -0.62900001 -0.493 21
2.9660001 -0.653 -0.46000001 15
3.056 -0.67699999 -0.42500001 17
3.1619999 -0.704 -0.389 17
3.2709999 -0.73299998 -0.34999999 21
2.7909999 -0.62800002 -0.52600002 20
2.8759999 -0.64999998 -0.49399999 20
2.9679999 -0.67500001 -0.46200001 17
3.0510001 -0.69700003 -0.426 18
3.1600001 -0.727 -0.38999999 17
3.266 -0.75599998 -0.35100001 21
0 6.1440001 0 0
0 0 0 0
0 0 0 0
0 0 0 255
2.79 -0.648 -0.52700001 21
2.872 -0.67000002 -0.495 16
2.9649999 -0.69499999 -0.463 20
3.053 -0.72000003 -0.42699999 16
3.1630001 -0.75 -0.39199999 17
3.263 -0.778 -0.35299999 22
2.7920001 -0.66900003 -0.52899998 20
2.881 -0.69300002 -0.498 15
2.9619999 -0.71499997 -0.46399999 16
3.053 -0.741 -0.42899999 15
3.1570001 -0.76999998 -0.39300001 18
3.2620001 -0.80000001 -0.354 21
2.7880001 -0.68699998 -0.52999997 30
2.869 -0.70999998 -0.498 18
2.961 -0.736 -0.46599999 16
3.053 -0.76200002 -0.43099999 16
3.1589999 -0.792 -0.39500001 18
3.2609999 -0.82300001 -0.35600001 22
2.789 -0.70700002 -0.53200001 22
2.8710001 -0.73000002 -0.5 14
2.96 -0.75599998 -0.46700001 14
3.046 -0.78100002 -0.43200001 16
3.1559999 -0.81300002 -0.396 22
3.2550001 -0.84299999 -0.35699999 19
2.7780001 -0.72299999 -0.53200001 19
2.872 -0.75 -0.50199997 16
2.9590001 -0.77499998 -0.46900001 17
3.049 -0.80199999 -0.43399999 17
3.151 -0.833 -0.398 17
3.253 -0.86400002 -0.359 20
2.783 -0.74299997 -0.53500003 18
2.8699999 -0.76899999 -0.50400001 15
2.9530001 -0.79400003 -0.47 18
3.046 -0.82200003 -0.435 15
3.1559999 -0.85500002 -0.40000001 20
3.2479999 -0.88499999 -0.36000001 20
2.7839999 -0.76200002 -0.537 18
2.868 -0.787 -0.50599998 16
2.9560001 -0.81400001 -0.47299999 18
3.0409999 -0.84100002 -0.43700001 16
3.151 -0.875 -0.40200001 18
3.247 -0.90600002 -0.36199999 20
2.7809999 -0.77999997 -0.53899997 17
2.8659999 -0.80599999 -0.50800002 13
2.9519999 -0.83200002 -0.47400001 14
3.039 -0.86000001 -0.43900001 16
3.145 -0.89399999 -0.403 18
3.2520001 -0.92799997 -0.36500001 24
2.779 -0.79699999 -0.54100001 17
2.8629999 -0.824 -0.509 15
2.95 -0.85100001 -0.47600001 15
3.0350001 -0.87800002 -0.44100001 15
3.1400001 -0.912 -0.405 16
3.243 -0.94599998 -0.366 19
2.776 -0.81400001 -0.54299998 17
2.8610001 -0.84100002 -0.51200002 14
2.9430001 -0.86799997 -0.47799999 13
3.0309999 -0.89600003 -0.442 15
3.138 -0.93099999 -0.40700001 16
3.2409999 -0.96499997 -0.368 23
2.773 -0.83099997 -0.54400003 17
2.8540001 -0.85699999 -0.51300001 15
2.941 -0.88499999 -0.47999999 15
3.036 -0.91600001 -0.44600001 19
3.138 -0.94999999 -0.41 18
3.2379999 -0.98400003 -0.37099999 22
2.7690001 -0.847 -0.546 20
2.849 -0.87300003 -0.51499999 15
2.941 -0.903 -0.48300001 15
3.023 -0.93099999 -0.447 17
3.1340001 -0.96700001 -0.412 17
3.233 -1.002 -0.373 21
2.7639999 -0.86199999 -0.54799998 23
2.846 -0.889 -0.51700002 15
2.938 -0.91900003 -0.48500001 14
3.02 -0.94700003 -0.449 17
3.1259999 -0.98299998 -0.414 18
3.2279999 -1.0190001 -0.375 22
2.763 -0.87800002 -0.551 19
2.849 -0.90700001 -0.51999998 14
2.9319999 -0.935 -0.48699999 16
3.017 -0.96399999 -0.45100001 16
3.1170001 -0.99800003 -0.41600001 17
3.2260001 -1.036 -0.37799999 22
2.756 -0.89200002 -0.55199999 19
2.8410001 -0.92000002 -0.52200001 15
2.927 -0.949 -0.48899999 17
3.013 -0.97899997 -0.454 16
3.115 -1.015 -0.41800001 15
3.22 -1.052 -0.38 24
2.75 -0.90499997 -0.55400002 18
2.835 -0.93400002 -0.523 14
2.9230001 -0.96499997 -0.491 14
3.0109999 -0.995 -0.456 16
3.115 -1.0319999 -0.421 17
3.22 -1.069 -0.38299999 21
0 6.1440001 0 0
0 0 0 0
0 0 0 0
0 0 0 255
2.75 -0.921 -0.55699998 19
2.836 -0.94999999 -0.52700001 14
2.9200001 -0.97899997 -0.49399999 14
3.0009999 -1.008 -0.458 17
3.1070001 -1.045 -0.42300001 18
3.214 -1.084 -0.38600001 22
2.743 -0.93300003 -0.55900002 16
2.835 -0.96499997 -0.52999997 15
2.918 -0.99400002 -0.49700001 19
2.997 -1.022 -0.461 16
3.1059999 -1.061 -0.42699999 16
3.2090001 -1.098 -0.389 21
2.7409999 -0.94599998 -0.56199998 17
2.8269999 -0.97600001 -0.53200001 16
2.915 -1.007 -0.5 13
2.9949999 -1.036 -0.46399999 16
3.099 -1.073 -0.42899999 18
3.1949999 -1.109 -0.38999999 23
2.7349999 -0.958 -0.56400001 16
2.822 -0.98900002 -0.53399998 16
2.904 -1.018 -0.50099999 14
2.9909999 -1.049 -0.46700001 16
3.0899999 -1.085 -0.43099999 17
3.194 -1.123 -0.39399999 27
2.7290001 -0.97000003 -0.56599998 17
2.8169999 -1 -0.537 15
2.901 -1.03 -0.50400001 14
2.9849999 -1.061 -0.46900001 15
3.0899999 -1.099 -0.435 19
3.187 -1.135 -0.396 21
2.7249999 -0.98100001 -0.56900001 16
2.8080001 -1.01 -0.53799999 15
2.8940001 -1.041 -0.50599998 16
2.977 -1.071 -0.47099999 15
3.082 -1.11 -0.43700001 17
3.1830001 -1.148 -0.40000001 19
2.7260001 -0.99400002 -0.57200003 19
2.8039999 -1.021 -0.54100001 15
2.8929999 -1.053 -0.509 14
2.971 -1.082 -0.47400001 17
3.082 -1.123 -0.44100001 16
3.174 -1.1569999 -0.40200001 22
2.717 -1.002 -0.574 16
2.8 -1.0319999 -0.54400003 15
2.8870001 -1.063 -0.51200002 16
2.971 -1.094 -0.477 16
3.0739999 -1.132 -0.44299999 16
3.1719999 -1.169 -0.40599999 19
2.71 -1.011 -0.57599998 19
2.7969999 -1.0420001 -0.54699999 17
2.881 -1.072 -0.51499999 16
2.964 -1.102 -0.47999999 15
3.063 -1.14 -0.44499999 16
3.1670001 -1.179 -0.40900001 19
2.7049999 -1.0190001 -0.579 16
2.796 -1.052 -0.55000001 15
2.8710001 -1.079 -0.51700002 14
2.957 -1.1109999 -0.48300001 15
3.0539999 -1.147 -0.44800001 17
3.154 -1.1849999 -0.41100001 26
2.7 -1.027 -0.58099997 20
2.786 -1.059 -0.55199999 14
2.8659999 -1.0880001 -0.51899999 15
2.947 -1.117 -0.48500001 16
3.049 -1.155 -0.45100001 18
3.148 -1.193 -0.414 19
2.6960001 -1.035 -0.58399999 19
2.7780001 -1.0650001 -0.55400002 16
2.865 -1.097 -0.523 16
2.9430001 -1.125 -0.48800001 17
3.0439999 -1.163 -0.454 21
3.1440001 -1.201 -0.417 18
2.691 -1.0420001 -0.58700001 17
2.7739999 -1.072 -0.55699998 15
2.8610001 -1.104 -0.52600002 16
2.9419999 -1.1339999 -0.491 16
3.0420001 -1.171 -0.45699999 16
3.1289999 -1.204 -0.419 19
2.684 -1.048 -0.58899999 19
2.77 -1.079 -0.56 15
2.8499999 -1.108 -0.52700001 16
2.9319999 -1.138 -0.493 16
3.033 -1.176 -0.46000001 19
3.1229999 -1.21 -0.42199999 19
2.681 -1.054 -0.59200001 20
2.76 -1.082 -0.56099999 17
2.848 -1.114 -0.53100002 17
2.924 -1.142 -0.49599999 17
3.027 -1.1799999 -0.46200001 16
3.1199999 -1.216 -0.42500001 19
2.6719999 -1.057 -0.59299999 18
2.757 -1.0880001 -0.56400001 16
2.8369999 -1.117 -0.53200001 15
2.921 -1.147 -0.49900001 17
3.0220001 -1.1849999 -0.46599999 19
3.1159999 -1.221 -0.42899999 21
0 6.1440001 0 0
0 0 0 0
0 0 0 0
0 0 0 255
2.6670001 -1.062 -0.59600002 17
2.75 -1.091 -0.56599998 17
2.835 -1.122 -0.53500003 16
2.9119999 -1.15 -0.50099999 15
3.0079999 -1.186 -0.46700001 18
3.1070001 -1.223 -0.43099999 19
2.6600001 -1.0650001 -0.59799999 18
2.743 -1.094 -0.56900001 17
2.8280001 -1.124 -0.53799999 16
2.908 -1.153 -0.50400001 15
3.01 -1.191 -0.47099999 16
3.0999999 -1.225 -0.43399999 19
2.6530001 -1.067 -0.59899998 18
2.74 -1.098 -0.57099998 15
2.8180001 -1.125 -0.53899997 15
2.902 -1.155 -0.50599998 16
3 -1.192 -0.47299999 16
3.096 -1.228 -0.43700001 20
2.6530001 -1.071 -0.60299999 16
2.737 -1.1 -0.574 13
2.816 -1.128 -0.542 15
2.8970001 -1.1569999 -0.509 15
2.993 -1.192 -0.47499999 16
3.0929999 -1.23 -0.44 19
2.6489999 -1.073 -0.60500002 17
2.7309999 -1.101 -0.57599998 14
2.8139999 -1.131 -0.54500002 15
2.8889999 -1.1569999 -0.51099998 15
2.9849999 -1.192 -0.477 17
3.085 -1.229 -0.442 19
2.645 -1.074 -0.60699999 18
2.717 -1.098 -0.57599998 15
2.8039999 -1.1289999 -0.54699999 15
2.8840001 -1.1569999 -0.51300001 15
2.9820001 -1.193 -0.47999999 16
3.0799999 -1.229 -0.44499999 21
2.6370001 -1.073 -0.60900003 20
2.7160001 -1.1 -0.57999998 15
2.796 -1.127 -0.54799998 16
2.8770001 -1.156 -0.51499999 16
2.9779999 -1.192 -0.48300001 16
3.073 -1.227 -0.447 21
2.6289999 -1.071 -0.61000001 18
2.71 -1.099 -0.58099997 15
2.7939999 -1.128 -0.551 15
2.872 -1.154 -0.51700002 17
2.9690001 -1.189 -0.48500001 16
3.066 -1.224 -0.449 21
2.6289999 -1.072 -0.61299998 18
2.7090001 -1.099 -0.58399999 16
2.7920001 -1.127 -0.55299997 15
2.8659999 -1.152 -0.51899999 17
2.9660001 -1.188 -0.48699999 16
3.0610001 -1.221 -0.45199999 20
2.6170001 -1.067 -0.61299998 18
2.7019999 -1.095 -0.58499998 17
2.783 -1.123 -0.55500001 16
2.859 -1.148 -0.52100003 18
2.961 -1.184 -0.48899999 17
3.0510001 -1.216 -0.45300001 22
2.6129999 -1.064 -0.61500001 18
2.7 -1.094 -0.588 18
2.78 -1.12 -0.55599999 16
2.8559999 -1.146 -0.523 18
2.961 -1.183 -0.49200001 16
3.0480001 -1.212 -0.45500001 21
2.615 -1.064 -0.61799997 18
2.691 -1.089 -0.588 19
2.7750001 -1.1160001 -0.55800003 16
2.8559999 -1.143 -0.52499998 18
2.941 -1.1720001 -0.491 16
3.0439999 -1.2079999 -0.45699999 20
2.6029999 -1.057 -0.61699998 19
2.687 -1.085 -0.58999997 17
2.77 -1.112 -0.56 15
2.849 -1.137 -0.52600002 17
2.938 -1.1670001 -0.493 17
3.0339999 -1.2 -0.458 21
2.599 -1.053 -0.61799997 19
2.687 -1.081 -0.59200001 16
2.767 -1.107 -0.56099999 15
2.8469999 -1.133 -0.528 17
2.9319999 -1.161 -0.49399999 17
3.0369999 -1.197 -0.461 24
2.6040001 -1.051 -0.62199998 18
2.6800001 -1.075 -0.59200001 15
2.7590001 -1.099 -0.56199998 16
2.8440001 -1.127 -0.52999997 16
2.9330001 -1.156 -0.49700001 17
3.0309999 -1.189 -0.46200001 22
2.5999999 -1.045 -0.62300003 16
2.6789999 -1.0700001 -0.59399998 15
2.7609999 -1.096 -0.56400001 15
2.8369999 -1.119 -0.53100002 15
2.9219999 -1.147 -0.49700001 18
3.029 -1.182 -0.46399999 19
0 6.1440001 0 0
0 0 0 0
0 0 0 0
0 0 0 255
2.5940001 -1.038 -0.62300003 16
2.6800001 -1.0650001 -0.59600002 13
2.76 -1.09 -0.56599998 14
2.832 -1.1109999 -0.53100002 16
2.921 -1.14 -0.498 17
3.023 -1.173 -0.465 21
2.586 -1.03 -0.62300003 17
2.6689999 -1.0549999 -0.59500003 15
2.7539999 -1.081 -0.56599998 16
2.835 -1.1059999 -0.53399998 15
2.9170001 -1.131 -0.49900001 17
3.0179999 -1.164 -0.46599999 20
2.586 -1.024 -0.62400001 17
2.6689999 -1.049 -0.597 14
2.7520001 -1.073 -0.56699997 14
2.829 -1.096 -0.53399998 19
2.918 -1.124 -0.50099999 16
3.0190001 -1.156 -0.46700001 19
2.5910001 -1.0190001 -0.62599999 19
2.6659999 -1.04 -0.597 14
2.7449999 -1.063 -0.56699997 15
2.826 -1.087 -0.53399998 15
2.9130001 -1.113 -0.50099999 17
3.0139999 -1.145 -0.46799999 21
2.5869999 -1.01 -0.62699997 17
2.6659999 -1.033 -0.59799999 14
2.7479999 -1.056 -0.56800002 15
2.8239999 -1.0779999 -0.53500003 17
2.911 -1.104 -0.50199997 14
3.0090001 -1.1339999 -0.46799999 21
2.5799999 -0.99900001 -0.62599999 16
2.6589999 -1.021 -0.597 15
2.747 -1.0470001 -0.56900001 15
2.825 -1.069 -0.53600001 16
2.9030001 -1.091 -0.50099999 16
3.003 -1.1210001 -0.46799999 22
2.582 -0.991 -0.62699997 17
2.6600001 -1.013 -0.59799999 13
2.7420001 -1.036 -0.56900001 16
2.8180001 -1.056 -0.53500003 15
2.905 -1.081 -0.50199997 19
2.994 -1.107 -0.46700001 21
2.5780001 -0.98100001 -0.62599999 14
2.6559999 -1.002 -0.59799999 13
2.7349999 -1.023 -0.56800002 16
2.8150001 -1.045 -0.53500003 15
2.901 -1.069 -0.50199997 20
2.993 -1.095 -0.46799999 22
2.5780001 -0.97100002 -0.62699997 15
2.6530001 -0.991 -0.59799999 14
2.7360001 -1.013 -0.56800002 15
2.8150001 -1.034 -0.53600001 18
2.9059999 -1.059 -0.50300002 19
3.0020001 -1.087 -0.47 23
2.5739999 -0.95899999 -0.62599999 16
2.651 -0.97899997 -0.597 13
2.7409999 -1.0039999 -0.56900001 13
2.812 -1.021 -0.53600001 16
2.904 -1.046 -0.50300002 17
2.993 -1.071 -0.46799999 21
2.5739999 -0.94800001 -0.62599999 18
2.6589999 -0.97100002 -0.59899998 14
2.7390001 -0.991 -0.56900001 14
2.8180001 -1.011 -0.537 13
2.901 -1.033 -0.50300002 17
2.9949999 -1.059 -0.46900001 20
2.5799999 -0.93900001 -0.62699997 19
2.6589999 -0.95899999 -0.59899998 16
2.73 -0.97600001 -0.56699997 13
2.813 -0.99699998 -0.53600001 16
2.9030001 -1.021 -0.50300002 16
3 -1.046 -0.46900001 23
2.5780001 -0.92699999 -0.62599999 18
2.6530001 -0.94499999 -0.597 14
2.734 -0.96499997 -0.56699997 14
2.8150001 -0.98500001 -0.53600001 16
2.9000001 -1.006 -0.50199997 15
2.993 -1.03 -0.46799999 21
2.579 -0.91500002 -0.62599999 17
2.658 -0.93400002 -0.59799999 14
2.737 -0.95300001 -0.56800002 14
2.8139999 -0.97100002 -0.53500003 14
2.901 -0.99199998 -0.50199997 19
2.9920001 -1.015 -0.46700001 22
2.5769999 -0.90200001 -0.625 18
2.654 -0.91900003 -0.59600002 15
2.7349999 -0.93800002 -0.56599998 14
2.812 -0.95599997 -0.53399998 15
2.9070001 -0.98000002 -0.50199997 16
2.9890001 -0.99900001 -0.46599999 22
2.5780001 -0.889 -0.62400001 17
2.655 -0.90600002 -0.59600002 15
2.734 -0.92400002 -0.56599998 14
2.8110001 -0.94099998 -0.53299999 17
2.904 -0.963 -0.50099999 17
2.993 -0.98500001 -0.46599999 21
0 6.1440001 0 0
0 0 0 0
0 0 0 0
0 0 0 255
2.5769999 -0.875 -0.62300003 17
2.654 -0.89200002 -0.59399998 15
2.7360001 -0.91000003 -0.565 13
2.8139999 -0.92699999 -0.53299999 15
2.9030001 -0.94800001 -0.5 20
2.9949999 -0.96899998 -0.46599999 21
2.579 -0.86199999 -0.62199998 16
2.6570001 -0.87800002 -0.59399998 14
2.7349999 -0.89499998 -0.56300002 14
2.812 -0.91100001 -0.53100002 16
2.9030001 -0.93199998 -0.49900001 19
2.9979999 -0.954 -0.465 20
2.579 -0.847 -0.62099999 18
2.6589999 -0.86400002 -0.59299999 13
2.7360001 -0.88 -0.56300002 14
2.819 -0.898 -0.53100002 14
2.908 -0.917 -0.498 16
2.993 -0.93599999 -0.463 20
2.585 -0.83499998 -0.62099999 17
2.6600001 -0.84899998 -0.59200001 15
2.743 -0.86699998 -0.56300002 13
2.8169999 -0.88099998 -0.52899998 15
2.904 -0.89899999 -0.49700001 19
2.997 -0.92000002 -0.46200001 20
2.5840001 -0.81900001 -0.61900002 17
2.6630001 -0.83499998 -0.59100002 15
2.7460001 -0.85100001 -0.56199998 14
2.819 -0.86500001 -0.528 13
2.9070001 -0.88300002 -0.49599999 17
3 -0.903 -0.461 19
2.5869999 -0.80400002 -0.61799997 13
2.6659999 -0.81999999 -0.58999997 13
2.743 -0.83399999 -0.56 13
2.823 -0.84899998 -0.528 15
2.9089999 -0.866 -0.49399999 17
2.9990001 -0.88499999 -0.46000001 20
2.586 -0.78799999 -0.616 17
2.665 -0.80299997 -0.588 14
2.7490001 -0.81900001 -0.55900002 14
2.823 -0.83200002 -0.52600002 14
2.908 -0.84799999 -0.49200001 20
3.0020001 -0.86699998 -0.458 23
2.5929999 -0.77399999 -0.616 17
2.668 -0.787 -0.58700001 14
2.7550001 -0.80299997 -0.55800003 12
2.8239999 -0.815 -0.52399999 16
2.914 -0.83200002 -0.49200001 19
3.0039999 -0.84899998 -0.45699999 22
2.5940001 -0.75800002 -0.61400002 17
2.671 -0.77100003 -0.58600003 15
2.753 -0.78600001 -0.55599999 12
2.8310001 -0.79900002 -0.523 13
2.9130001 -0.81300002 -0.49000001 18
3.0050001 -0.82999998 -0.45500001 20
2.596 -0.74199998 -0.61299998 18
2.6700001 -0.75400001 -0.58399999 14
2.756 -0.76899999 -0.55500001 14
2.8299999 -0.77999997 -0.52100003 16
2.9170001 -0.79500002 -0.48800001 17
3.006 -0.81099999 -0.45300001 20
2.599 -0.72500002 -0.611 16
2.675 -0.73699999 -0.58200002 13
2.7609999 -0.75199997 -0.55400002 16
2.8299999 -0.76200002 -0.51899999 15
2.9219999 -0.778 -0.48699999 19
3.0120001 -0.79299998 -0.45199999 25
2.5999999 -0.708 -0.60900003 14
2.678 -0.72000003 -0.58099997 13
2.757 -0.73299998 -0.551 14
2.836 -0.745 -0.51800001 16
2.925 -0.75999999 -0.486 18
3.0139999 -0.77399999 -0.44999999 20
2.595 -0.68900001 -0.60600001 18
2.6830001 -0.704 -0.57999998 16
2.76 -0.71499997 -0.54900002 17
2.8410001 -0.727 -0.51700002 17
2.9300001 -0.741 -0.484 17
3.0220001 -0.75599998 -0.44999999 22
2.5999999 -0.67299998 -0.60500002 18
2.6819999 -0.685 -0.57700002 13
2.7650001 -0.69800001 -0.54799998 17
2.8399999 -0.708 -0.51499999 14
2.931 -0.722 -0.48199999 15
3.0280001 -0.73699999 -0.44800001 23
2.6029999 -0.65600002 -0.60299999 17
2.6860001 -0.66799998 -0.57599998 15
2.7639999 -0.67900002 -0.54500002 14
2.8469999 -0.69 -0.514 12
2.934 -0.70300001 -0.47999999 15
3.0280001 -0.71700001 -0.44600001 21
2.6129999 -0.63999999 -0.60299999 14
2.6889999 -0.64999998 -0.574 15
2.7709999 -0.66100001 -0.54400003 15
2.8469999 -0.671 -0.51099998 14
2.9319999 -0.68199998 -0.47799999 16
3.03 -0.69599998 -0.44400001 20
0 6.1440001 0 0
0 0 0 0
0 0 0 0
0 0 0 255
2.605 -0.62 -0.59799999 15
2.6889999 -0.63099998 -0.57099998 14
2.776 -0.64300001 -0.54299998 12
2.8469999 -0.65100002 -0.509 14
2.944 -0.66399997 -0.477 15
3.0320001 -0.676 -0.442 19
2.615 -0.60299999 -0.59799999 15
2.6949999 -0.61299998 -0.56999999 13
2.777 -0.62300003 -0.54000002 13
2.8570001 -0.63300002 -0.50800002 13
2.9430001 -0.64300001 -0.47499999 14
3.0350001 -0.65499997 -0.44 18
2.612 -0.58399999 -0.59500003 15
2.697 -0.59399998 -0.56800002 14
2.779 -0.60399997 -0.53799999 15
2.858 -0.61299998 -0.50599998 15
2.947 -0.62300003 -0.47299999 17
3.0439999 -0.63599998 -0.43900001 22
2.6240001 -0.56699997 -0.59500003 19
2.701 -0.57599998 -0.56599998 15
2.78 -0.58399999 -0.53600001 17
2.859 -0.59200001 -0.50400001 15
2.951 -0.60299999 -0.47099999 15
3.0450001 -0.61400002 -0.43700001 17
2.628 -0.54900002 -0.59299999 17
2.7030001 -0.55599999 -0.56400001 13
2.7820001 -0.56400001 -0.53399998 14
2.8610001 -0.57200003 -0.50099999 14
2.951 -0.58200002 -0.46900001 15
3.0469999 -0.59299999 -0.43399999 17
2.6300001 -0.52999997 -0.59100002 14
2.7119999 -0.53799999 -0.56300002 14
2.786 -0.54500002 -0.53200001 12
2.868 -0.55299997 -0.5 13
2.9560001 -0.56199998 -0.46700001 14
3.0469999 -0.57099998 -0.43200001 17
2.631 -0.51099998 -0.58899999 15
2.71 -0.51800001 -0.56099999 13
2.79 -0.52499998 -0.52999997 14
2.868 -0.53200001 -0.498 13
2.961 -0.54100001 -0.465 17
3.0569999 -0.551 -0.43099999 18
2.631 -0.491 -0.58600003 14
2.7119999 -0.498 -0.55800003 14
2.7969999 -0.50599998 -0.52899998 13
2.8699999 -0.51099998 -0.49599999 13
2.961 -0.51899999 -0.463 21
3.0569999 -0.528 -0.42899999 20
2.6400001 -0.47299999 -0.58600003 12
2.711 -0.47799999 -0.55599999 13
2.7969999 -0.48500001 -0.52700001 12
2.8770001 -0.491 -0.49399999 14
2.964 -0.498 -0.461 16
3.0610001 -0.50599998 -0.42699999 17
2.6440001 -0.454 -0.58399999 15
2.7219999 -0.45899999 -0.55500001 13
2.7969999 -0.46399999 -0.52399999 12
2.8800001 -0.47 -0.49200001 14
2.967 -0.47600001 -0.45899999 14
3.0650001 -0.48500001 -0.42500001 17
2.645 -0.43399999 -0.58200002 18
2.723 -0.43900001 -0.55299997 14
2.8080001 -0.44499999 -0.52399999 12
2.8840001 -0.449 -0.491 13
2.9690001 -0.45500001 -0.45699999 16
3.0680001 -0.46200001 -0.42300001 17
2.6500001 -0.414 -0.57999998 15
2.7279999 -0.419 -0.55199999 14
2.8080001 -0.42399999 -0.52100003 12
2.8870001 -0.428 -0.48899999 12
2.9749999 -0.433 -0.45500001 16
3.069 -0.43900001 -0.421 17
2.651 -0.39399999 -0.57800001 15
2.7279999 -0.398 -0.54900002 13
2.8099999 -0.40200001 -0.51899999 12
2.892 -0.40700001 -0.48699999 13
2.98 -0.412 -0.454 15
3.076 -0.417 -0.419 17
2.658 -0.37400001 -0.57700002 15
2.7360001 -0.37799999 -0.54900002 13
2.819 -0.382 -0.51899999 12
2.8889999 -0.384 -0.484 12
2.983 -0.38999999 -0.45199999 15
3.0769999 -0.39500001 -0.417 17
2.654 -0.35299999 -0.574 15
2.7349999 -0.35699999 -0.546 12
2.8110001 -0.36000001 -0.51499999 12
2.892 -0.36300001 -0.48300001 14
2.9879999 -0.368 -0.45100001 15
3.0840001 -0.37200001 -0.41600001 18
2.6600001 -0.33399999 -0.57300001 15
2.737 -0.336 -0.54400003 12
2.8210001 -0.33899999 -0.51499999 12
2.8959999 -0.34099999 -0.48100001 12
2.9890001 -0.345 -0.449 15
3.0829999 -0.34900001 -0.414 17
0 6.1440001 0 0
0 0 0 0
0 0 0 0
0 0 0 255
2.6600001 -0.31299999 -0.57099998 17
2.74 -0.315 -0.54299998 13
2.8239999 -0.31799999 -0.51300001 12
2.8989999 -0.31900001 -0.47999999 13
2.9920001 -0.322 -0.447 15
3.082 -0.32499999 -0.412 19
2.664 -0.292 -0.56900001 16
2.744 -0.294 -0.54100001 11
2.8280001 -0.296 -0.51200002 12
2.9070001 -0.29800001 -0.479 12
2.997 -0.30000001 -0.44600001 15
3.089 -0.30199999 -0.41 17
2.6600001 -0.271 -0.56699997 14
2.7460001 -0.273 -0.54000002 13
2.8269999 -0.27399999 -0.509 11
2.904 -0.27500001 -0.47600001 13
2.997 -0.27700001 -0.44400001 14
3.0940001 -0.27900001 -0.40900001 18
2.6659999 -0.25099999 -0.56599998 16
2.7509999 -0.252 -0.53899997 12
2.8329999 -0.25299999 -0.509 14
2.9059999 -0.25299999 -0.47499999 14
2.997 -0.25400001 -0.442 15
3.092 -0.255 -0.40700001 21
2.6689999 -0.23 -0.565 15
2.7550001 -0.23100001 -0.53799999 10
2.8340001 -0.23100001 -0.50700003 14
2.9100001 -0.23100001 -0.47400001 13
3.0009999 -0.23100001 -0.44100001 15
3.095 -0.23199999 -0.40599999 21
2.675 -0.20900001 -0.56400001 15
2.7509999 -0.20900001 -0.53500003 11
2.8310001 -0.20900001 -0.505 13
2.9100001 -0.208 -0.472 12
3.0009999 -0.208 -0.43900001 15
3.095 -0.208 -0.40400001 19
2.6730001 -0.18799999 -0.56199998 13
2.756 -0.18700001 -0.53399998 12
2.8380001 -0.18700001 -0.50400001 11
2.9200001 -0.186 -0.472 13
3.0009999 -0.185 -0.43700001 13
3.102 -0.184 -0.403 16
2.684 -0.167 -0.56199998 15
2.7579999 -0.16599999 -0.53299999 12
2.8399999 -0.16500001 -0.50300002 11
2.915 -0.163 -0.46900001 11
3.01 -0.162 -0.43700001 14
3.1029999 -0.161 -0.40200001 17
2.674 -0.145 -0.55900002 12
2.756 -0.14399999 -0.53100002 10
2.842 -0.142 -0.50199997 10
2.9189999 -0.14 -0.46799999 13
3.0039999 -0.138 -0.435 12
3.0999999 -0.13600001 -0.40000001 18
2.6819999 -0.124 -0.55900002 14
2.7579999 -0.122 -0.52999997 13
2.839 -0.119 -0.5 10
2.9159999 -0.117 -0.46700001 11
3.0039999 -0.114 -0.433 11
3.1040001 -0.112 -0.39899999 18
2.6819999 -0.102 -0.55800003 14
