# .PCD v0.7 - Point Cloud Data file format
VERSION 0.7
FIELDS x y z intensity
SIZE 4 4 4 4
TYPE F F F F
COUNT 1 1 1 1
WIDTH 1609
HEIGHT 1
VIEWPOINT 0 0 0 1 0 0 0
POINTS 1609
DATA ascii
3.3940001 -0.79400003 -0.30500001 15
3.5139999 -0.81599998 -0.25799999 8
3.648 -0.84100002 -0.20900001 19
3.799 -0.87 -0.15700001 17
3.9549999 -0.89899999 -0.1 18
3.29 -0.74800003 -0.347 16
3.398 -0.76599997 -0.303 11
3.523 -0.787 -0.257 13
3.6559999 -0.81099999 -0.208 15
3.802 -0.83700001 -0.155 17
3.954 -0.86500001 -0.097999997 19
3.293 -0.71899998 -0.345 16
3.402 -0.73699999 -0.30199999 14
3.533 -0.759 -0.25600001 14
3.6589999 -0.77999997 -0.207 15
3.812 -0.80699998 -0.154 16
3.9549999 -0.83200002 -0.097000003 18
3.29 -0.69 -0.34299999 18
3.4059999 -0.708 -0.30000001 14
3.526 -0.72799999 -0.25400001 15
3.652 -0.74800003 -0.205 14
3.803 -0.773 -0.152 17
3.9560001 -0.79900002 -0.096000001 17
3.2850001 -0.66100001 -0.34099999 16
3.408 -0.68000001 -0.29899999 15
3.5309999 -0.69800001 -0.25299999 14
3.6589999 -0.71799999 -0.204 16
3.8069999 -0.74199998 -0.15099999 17
3.9579999 -0.76599997 -0.093999997 17
3.293 -0.634 -0.34099999 17
3.404 -0.64999998 -0.29699999 14
3.5209999 -0.66600001 -0.25099999 15
3.6570001 -0.68699998 -0.20200001 14
3.8050001 -0.70899999 -0.15000001 17
3.954 -0.73199999 -0.093000002 18
3.2880001 -0.60500002 -0.33899999 16
3.4100001 -0.62199998 -0.29699999 16
3.5280001 -0.63800001 -0.25 14
3.6600001 -0.65600002 -0.20100001 15
3.802 -0.67699999 -0.149 16
3.951 -0.69800001 -0.092 16
0 6.1440001 0 0
0 0 0 0
0 0 0 0
0 0 0 255
3.3 -0.579 -0.33899999 17
3.411 -0.59299999 -0.296 14
3.5369999 -0.60900003 -0.25 14
3.6670001 -0.62699997 -0.20100001 14
3.802 -0.64499998 -0.148 18
3.9549999 -0.66600001 -0.090999998 18
3.293 -0.55000001 -0.33700001 15
3.408 -0.56400001 -0.294 14
3.526 -0.57800001 -0.248 15
3.665 -0.59600002 -0.2 13
3.8039999 -0.61400002 -0.147 14
3.9430001 -0.63099998 -0.090000004 17
3.293 -0.52200001 -0.336 17
3.4100001 -0.53500003 -0.29300001 16
3.527 -0.54900002 -0.24699999 13
3.6589999 -0.565 -0.199 14
3.8069999 -0.583 -0.147 16
3.9519999 -0.60000002 -0.090000004 18
3.2920001 -0.49399999 -0.33500001 17
3.4100001 -0.50700003 -0.29300001 14
3.533 -0.52100003 -0.24699999 14
3.6589999 -0.53500003 -0.198 15
3.7980001 -0.55000001 -0.145 17
3.951 -0.56800002 -0.089000002 17
3.2939999 -0.46700001 -0.33500001 17
3.411 -0.479 -0.292 14
3.5280001 -0.491 -0.24600001 14
3.6570001 -0.50400001 -0.197 14
3.796 -0.51899999 -0.145 14
3.947 -0.53600001 -0.089000002 18
3.2939999 -0.44 -0.33399999 17
3.4089999 -0.45100001 -0.29100001 16
3.5250001 -0.46200001 -0.245 15
3.6530001 -0.47400001 -0.197 15
3.7969999 -0.48899999 -0.145 15
3.947 -0.50400001 -0.088 16
3.2939999 -0.41299999 -0.333 16
3.411 -0.42300001 -0.29100001 15
3.523 -0.433 -0.245 14
3.6500001 -0.44400001 -0.19599999 17
3.7950001 -0.458 -0.14399999 14
3.944 -0.472 -0.088 20
3.2939999 -0.38600001 -0.333 17
3.4089999 -0.39500001 -0.29100001 15
3.5250001 -0.40400001 -0.245 13
3.6489999 -0.414 -0.19599999 14
3.796 -0.42699999 -0.14399999 15
3.9389999 -0.44 -0.088 17
3.29 -0.359 -0.33199999 17
3.408 -0.36700001 -0.28999999 14
3.5190001 -0.37599999 -0.244 15
3.645 -0.38499999 -0.19499999 15
3.793 -0.39700001 -0.14399999 15
3.9360001 -0.40799999 -0.088 17
3.2880001 -0.331 -0.33199999 16
3.4059999 -0.34 -0.28999999 14
3.516 -0.347 -0.244 12
3.6470001 -0.35600001 -0.19499999 14
3.7939999 -0.36700001 -0.14399999 15
3.9330001 -0.377 -0.088 18
3.2880001 -0.30500001 -0.33199999 16
3.3989999 -0.31200001 -0.289 13
3.517 -0.31900001 -0.244 14
3.6489999 -0.32699999 -0.19599999 13
3.786 -0.336 -0.14399999 14
3.928 -0.345 -0.088 17
3.2880001 -0.27900001 -0.33199999 16
3.388 -0.28400001 -0.28799999 13
3.517 -0.29100001 -0.244 13
3.642 -0.29800001 -0.19499999 13
3.7839999 -0.30700001 -0.14399999 15
3.928 -0.315 -0.088 19
3.283 -0.252 -0.33199999 15
3.3989999 -0.25799999 -0.289 15
3.516 -0.26300001 -0.244 13
3.642 -0.27000001 -0.19599999 14
3.78 -0.27700001 -0.14399999 15
3.9260001 -0.28400001 -0.088 18
3.279 -0.226 -0.331 14
3.3900001 -0.23 -0.289 14
3.5050001 -0.235 -0.244 13
3.6329999 -0.23999999 -0.19499999 15
3.7780001 -0.24699999 -0.14399999 16
3.921 -0.25299999 -0.089000002 17
3.2720001 -0.2 -0.331 18
3.3900001 -0.204 -0.289 14
3.506 -0.208 -0.244 14
3.631 -0.212 -0.19599999 13
3.7750001 -0.21799999 -0.145 15
3.914 -0.222 -0.089000002 16
3.2750001 -0.17399999 -0.33199999 20
3.3859999 -0.177 -0.28999999 14
3.5020001 -0.18000001 -0.244 14
3.628 -0.184 -0.19599999 14
3.773 -0.18799999 -0.145 15
3.9100001 -0.192 -0.089000002 16
0 6.1440001 0 0
0 0 0 0
0 0 0 0
0 0 0 255
3.267 -0.148 -0.331 16
3.382 -0.15000001 -0.28999999 17
3.5009999 -0.153 -0.245 13
3.6289999 -0.156 -0.197 13
3.7690001 -0.15899999 -0.146 16
3.9070001 -0.162 -0.090000004 16
3.2609999 -0.122 -0.331 17
3.3859999 -0.124 -0.29100001 15
3.5 -0.126 -0.245 14
3.625 -0.12800001 -0.197 13
3.767 -0.13 -0.146 14
3.9059999 -0.132 -0.090999998 16
3.2650001 -0.097000003 -0.33199999 18
3.378 -0.097999997 -0.29100001 14
3.493 -0.098999999 -0.245 14
3.615 -0.1 -0.197 13
3.7650001 -0.102 -0.147 14
3.902 -0.103 -0.090999998 17
3.2590001 -0.071999997 -0.33199999 19
3.3770001 -0.072999999 -0.29100001 18
3.4909999 -0.072999999 -0.24600001 14
3.6170001 -0.072999999 -0.198 13
3.7579999 -0.072999999 -0.147 17
3.8989999 -0.074000001 -0.092 18
3.2520001 -0.046999998 -0.333 19
3.3670001 -0.046999998 -0.29100001 16
3.484 -0.046 -0.24600001 14
3.608 -0.046 -0.199 13
3.753 -0.045000002 -0.148 14
3.8900001 -0.045000002 -0.093000002 20
3.2539999 -0.023 -0.33399999 18
3.3699999 -0.022 -0.292 17
3.483 -0.02 -0.24699999 14
3.6070001 -0.018999999 -0.199 14
3.7479999 -0.017999999 -0.149 15
3.8859999 -0.016000001 -0.093999997 22
3.25 0.001 -0.33399999 17
3.3640001 0.003 -0.29300001 15
3.48 0.0049999999 -0.248 13
3.605 0.0070000002 -0.2 13
3.743 0.0089999996 -0.149 16
3.8759999 0.012 -0.093999997 24
3.2420001 0.025 -0.33399999 17
3.3610001 0.028000001 -0.29300001 16
3.474 0.030999999 -0.249 14
3.596 0.034000002 -0.20100001 14
3.7379999 0.037 -0.15000001 16
3.8710001 0.039999999 -0.094999999 19
3.2479999 0.048999999 -0.336 16
3.3599999 0.052999999 -0.294 14
3.471 0.056000002 -0.249 13
3.599 0.059999999 -0.20200001 13
3.7409999 0.064000003 -0.15099999 17
3.869 0.068000004 -0.096000001 18
3.2379999 0.072999999 -0.336 17
3.355 0.078000002 -0.29499999 16
3.471 0.082000002 -0.25 12
3.596 0.086000003 -0.20299999 14
3.7349999 0.090999998 -0.152 16
3.858 0.096000001 -0.097000003 21
3.2349999 0.097000003 -0.33700001 16
3.3469999 0.102 -0.29499999 15
3.467 0.107 -0.25099999 14
3.5880001 0.112 -0.204 14
3.7290001 0.118 -0.153 13
3.865 0.124 -0.097999997 17
3.237 0.121 -0.338 16
3.345 0.126 -0.296 15
3.464 0.132 -0.252 14
3.582 0.138 -0.204 17
3.724 0.14399999 -0.154 14
3.8599999 0.15099999 -0.098999999 18
3.2290001 0.14399999 -0.338 15
3.336 0.15000001 -0.29699999 16
3.46 0.156 -0.25299999 14
3.572 0.162 -0.205 13
3.7179999 0.17 -0.155 14
3.8499999 0.178 -0.1 18
3.2219999 0.16599999 -0.33899999 17
3.3380001 0.17299999 -0.29800001 15
3.45 0.18000001 -0.25299999 15
3.5710001 0.18799999 -0.206 13
3.71 0.19599999 -0.156 15
3.8529999 0.205 -0.102 16
3.224 0.19 -0.34 16
3.335 0.197 -0.29899999 15
3.4489999 0.205 -0.25400001 14
3.5680001 0.213 -0.207 13
3.7060001 0.222 -0.15700001 14
3.839 0.23100001 -0.102 16
3.217 0.212 -0.34099999 20
3.3310001 0.22 -0.30000001 16
3.438 0.228 -0.255 14
3.562 0.23800001 -0.208 13
3.7 0.248 -0.15800001 14
3.8369999 0.25799999 -0.103 15
0 6.1440001 0 0
0 0 0 0
0 0 0 0
0 0 0 255
3.214 0.234 -0.34200001 17
3.322 0.243 -0.30000001 15
3.434 0.252 -0.25600001 13
3.5580001 0.26199999 -0.20900001 14
3.698 0.273 -0.15899999 15
3.835 0.28400001 -0.105 16
3.2119999 0.257 -0.34200001 18
3.316 0.26499999 -0.301 15
3.425 0.27500001 -0.25600001 14
3.553 0.28600001 -0.20999999 14
3.691 0.29800001 -0.16 14
3.826 0.30899999 -0.105 15
3.2 0.278 -0.34200001 17
3.3150001 0.28799999 -0.30199999 15
3.4260001 0.29800001 -0.257 14
3.5480001 0.30899999 -0.20999999 14
3.688 0.322 -0.16 14
3.8169999 0.33399999 -0.106 17
3.197 0.29899999 -0.34299999 16
3.316 0.31099999 -0.303 17
3.428 0.322 -0.259 14
3.5439999 0.333 -0.211 13
3.6889999 0.347 -0.162 15
3.8150001 0.36000001 -0.107 16
3.1949999 0.32100001 -0.34400001 16
3.309 0.33199999 -0.303 17
3.418 0.34299999 -0.259 16
3.5420001 0.35600001 -0.212 14
3.681 0.37099999 -0.162 15
3.809 0.384 -0.108 16
3.1949999 0.34200001 -0.345 17
3.303 0.354 -0.30399999 15
3.4119999 0.36500001 -0.25999999 15
3.5350001 0.37900001 -0.213 14
3.6730001 0.39399999 -0.163 15
3.806 0.40900001 -0.109 17
3.184 0.36199999 -0.345 19
3.299 0.375 -0.30500001 18
3.415 0.38800001 -0.26100001 16
3.527 0.40099999 -0.213 16
3.6659999 0.417 -0.164 17
3.8050001 0.433 -0.11 19
3.1860001 0.38299999 -0.34599999 17
3.299 0.39700001 -0.30599999 17
3.4059999 0.40900001 -0.26100001 16
3.5179999 0.42300001 -0.214 18
3.6630001 0.44 -0.164 15
3.7939999 0.456 -0.11 21
3.184 0.403 -0.347 21
3.29 0.417 -0.30599999 14
3.3959999 0.43000001 -0.26100001 16
3.5220001 0.44600001 -0.215 17
3.661 0.463 -0.16500001 16
3.789 0.47999999 -0.111 22
3.1719999 0.42199999 -0.347 18
3.29 0.43700001 -0.30700001 17
3.3970001 0.45100001 -0.26199999 17
3.5190001 0.46700001 -0.215 17
3.6489999 0.48500001 -0.16500001 16
3.7839999 0.50300002 -0.111 28
3.175 0.44299999 -0.34799999 21
3.2869999 0.458 -0.30700001 16
3.398 0.47299999 -0.26300001 17
3.517 0.48899999 -0.21600001 16
3.654 0.50800002 -0.16599999 16
3.7820001 0.52600002 -0.112 22
3.1700001 0.46200001 -0.34799999 20
3.2780001 0.477 -0.30700001 17
3.3929999 0.493 -0.26300001 17
3.5109999 0.50999999 -0.21600001 14
3.6470001 0.52899998 -0.167 16
3.7720001 0.54799998 -0.112 20
3.168 0.48100001 -0.34900001 18
3.283 0.498 -0.308 16
3.3970001 0.514 -0.264 16
3.51 0.53100002 -0.21699999 15
3.641 0.551 -0.167 18
3.773 0.57099998 -0.113 18
3.1700001 0.5 -0.34900001 23
3.2720001 0.51599997 -0.308 17
3.392 0.53399998 -0.264 15
3.5050001 0.551 -0.21699999 15
3.645 0.57300001 -0.167 16
3.7780001 0.59399998 -0.113 19
3.1670001 0.51899999 -0.34999999 24
3.279 0.53600001 -0.30899999 18
3.385 0.55299997 -0.264 16
3.5009999 0.57099998 -0.21699999 14
3.638 0.59299999 -0.167 17
3.773 0.61500001 -0.113 18
3.161 0.53600001 -0.34900001 18
3.2709999 0.55400002 -0.308 16
3.3870001 0.57300001 -0.26499999 14
3.4990001 0.59100002 -0.21699999 15
3.6359999 0.61400002 -0.167 17
3.7739999 0.63700002 -0.114 18
0 6.1440001 0 0
0 0 0 0
0 0 0 0
0 0 0 255
3.1619999 0.55500001 -0.34999999 20
3.266 0.57200003 -0.308 17
3.3789999 0.59100002 -0.264 16
3.5009999 0.611 -0.21699999 17
3.6389999 0.63499999 -0.167 16
3.7709999 0.65799999 -0.113 18
3.155 0.57099998 -0.34900001 20
3.27 0.59100002 -0.30899999 16
3.381 0.61000001 -0.264 16
3.4979999 0.63 -0.21699999 16
3.638 0.65499997 -0.167 16
3.7720001 0.67900002 -0.113 17
3.155 0.58899999 -0.34900001 19
3.2650001 0.60799998 -0.308 19
3.3740001 0.62699997 -0.264 17
3.4909999 0.648 -0.21699999 16
3.6340001 0.67400002 -0.167 14
3.77 0.699 -0.113 18
3.155 0.60600001 -0.34900001 17
3.266 0.62599999 -0.308 18
3.378 0.64600003 -0.264 16
3.4979999 0.66799998 -0.21699999 16
3.6359999 0.69400001 -0.167 16
3.7650001 0.71799999 -0.112 18
3.151 0.62199998 -0.34900001 19
3.263 0.64300001 -0.308 16
3.3770001 0.66399997 -0.264 16
3.49 0.685 -0.21600001 17
3.6329999 0.71200001 -0.16599999 14
3.7679999 0.73799998 -0.112 17
3.151 0.63800001 -0.34900001 19
3.2609999 0.65899998 -0.30700001 16
3.375 0.68099999 -0.26300001 16
3.4990001 0.70499998 -0.21600001 15
3.632 0.73100001 -0.16599999 16
3.7639999 0.75700003 -0.111 16
3.145 0.653 -0.34799999 21
3.263 0.676 -0.30700001 18
3.372 0.69700003 -0.26199999 18
3.4909999 0.72100002 -0.215 16
3.6359999 0.75 -0.16500001 15
3.7679999 0.77600002 -0.11 17
3.1570001 0.671 -0.34799999 18
3.2639999 0.69199997 -0.30700001 20
3.375 0.71399999 -0.26199999 15
3.4960001 0.73900002 -0.214 15
3.6359999 0.76700002 -0.164 17
3.767 0.79400003 -0.11 20
3.1470001 0.68400002 -0.347 22
3.263 0.708 -0.30599999 17
3.378 0.73100001 -0.26100001 17
3.4920001 0.755 -0.213 16
3.635 0.78399998 -0.163 16
3.7720001 0.81300002 -0.109 20
3.1500001 0.69999999 -0.34599999 20
3.2650001 0.72299999 -0.30500001 18
3.375 0.74599999 -0.25999999 15
3.4979999 0.77200001 -0.213 14
3.6340001 0.801 -0.162 16
3.7750001 0.83099997 -0.107 18
3.1470001 0.713 -0.345 20
3.263 0.73799998 -0.30399999 19
3.3740001 0.76099998 -0.259 15
3.497 0.787 -0.211 16
3.642 0.81900001 -0.161 17
3.779 0.84899998 -0.106 21
3.1559999 0.72899997 -0.345 21
3.263 0.75199997 -0.303 17
3.3770001 0.77600002 -0.25799999 16
3.5009999 0.80299997 -0.20999999 16
3.6400001 0.83399999 -0.15899999 18
3.7739999 0.86400002 -0.104 19
3.1530001 0.74199998 -0.34299999 21
3.2679999 0.76700002 -0.30199999 22
3.381 0.79100001 -0.257 15
3.506 0.81900001 -0.20900001 16
3.6459999 0.85100001 -0.15800001 17
3.78 0.88099998 -0.103 20
3.158 0.75599998 -0.34200001 21
3.2579999 0.77700001 -0.29899999 25
3.381 0.80500001 -0.255 15
3.503 0.83200002 -0.207 16
3.648 0.866 -0.156 17
3.7850001 0.898 -0.1 21
3.1570001 0.76800001 -0.34099999 21
3.2650001 0.792 -0.29800001 27
3.385 0.81900001 -0.25400001 16
3.5079999 0.847 -0.205 16
3.6489999 0.88099998 -0.154 17
3.7850001 0.912 -0.097999997 19
3.168 0.78299999 -0.34 38
3.267 0.80500001 -0.29699999 27
3.3900001 0.833 -0.252 17
3.5109999 0.861 -0.20299999 15
3.6470001 0.89399999 -0.152 17
3.789 0.92799997 -0.096000001 18
0 6.1440001 0 0
0 0 0 0
0 0 0 0
0 0 0 255
3.168 0.79400003 -0.338 50
3.2709999 0.81699997 -0.29499999 37
3.3900001 0.84500003 -0.25 15
3.5150001 0.875 -0.20200001 17
3.652 0.90799999 -0.15000001 19
3.7850001 0.94 -0.093999997 18
3.1689999 0.80500001 -0.336 50
3.2709999 0.82800001 -0.29300001 35
3.395 0.85799998 -0.248 15
3.5190001 0.88700002 -0.199 17
3.6630001 0.92299998 -0.148 18
3.802 0.95700002 -0.090999998 18
3.175 0.81599998 -0.33500001 50
3.277 0.83999997 -0.29100001 33
3.4059999 0.87099999 -0.24600001 15
3.5250001 0.89999998 -0.197 18
3.6689999 0.93599999 -0.145 18
3.8039999 0.96899998 -0.088 18
3.1800001 0.82700002 -0.333 53
3.2839999 0.852 -0.289 29
3.4100001 0.88300002 -0.244 15
3.5369999 0.91399997 -0.19499999 17
3.674 0.94800001 -0.14300001 18
3.813 0.98299998 -0.086000003 18
3.1819999 0.83700001 -0.331 50
3.2880001 0.86199999 -0.287 22
3.4159999 0.89399999 -0.242 14
3.54 0.92500001 -0.192 16
3.678 0.95999998 -0.14 15
3.8180001 0.995 -0.082999997 19
3.1849999 0.84600002 -0.32800001 50
3.2969999 0.87400001 -0.285 23
3.415 0.903 -0.23899999 18
3.5469999 0.93599999 -0.19 16
3.684 0.97100002 -0.13699999 16
3.826 1.008 -0.079999998 19
3.188 0.85500002 -0.32600001 52
3.2969999 0.88200003 -0.28200001 20
3.421 0.91299999 -0.236 15
3.552 0.94599998 -0.18700001 15
3.6949999 0.98299998 -0.134 16
3.8369999 1.02 -0.075999998 19
3.1960001 0.86400002 -0.324 49
3.309 0.89200002 -0.28 15
3.4319999 0.92400002 -0.234 17
3.5569999 0.95599997 -0.184 15
3.698 0.99199998 -0.13 15
3.8429999 1.03 -0.072999999 18
3.1989999 0.87199998 -0.32100001 49
3.3180001 0.90200001 -0.278 15
3.4349999 0.93099999 -0.23100001 16
3.563 0.96399999 -0.18099999 15
3.7049999 1.002 -0.127 15
3.859 1.043 -0.068999998 18
3.2049999 0.87900001 -0.31799999 49
3.3210001 0.90899998 -0.27500001 17
3.447 0.94099998 -0.228 16
3.575 0.97399998 -0.178 16
3.724 1.0140001 -0.124 16
3.8629999 1.051 -0.064999998 21
3.2079999 0.88599998 -0.31600001 52
3.3329999 0.917 -0.27200001 16
3.451 0.94800001 -0.22499999 16
3.585 0.98299998 -0.175 15
3.727 1.021 -0.12 16
3.869 1.059 -0.061000001 20
3.217 0.89300001 -0.31299999 47
3.3369999 0.92400002 -0.26899999 17
3.467 0.95700002 -0.222 16
3.5899999 0.99000001 -0.171 16
3.733 1.028 -0.116 16
3.8840001 1.069 -0.057999998 19
3.2279999 0.89999998 -0.31 47
3.348 0.93099999 -0.266 17
3.4679999 0.96200001 -0.219 16
3.5940001 0.99599999 -0.167 16
3.7420001 1.035 -0.113 17
3.898 1.0779999 -0.052999999 21
3.227 0.903 -0.30700001 42
3.358 0.93699998 -0.26300001 16
3.477 0.96799999 -0.215 17
3.6140001 1.005 -0.164 16
3.7490001 1.041 -0.109 18
3.9089999 1.085 -0.048999999 21
3.2409999 0.90899998 -0.30399999 38
3.3629999 0.94099998 -0.25999999 15
3.487 0.97399998 -0.212 16
3.6159999 1.008 -0.16 16
3.767 1.049 -0.105 16
3.905 1.087 -0.045000002 19
3.244 0.912 -0.301 27
3.365 0.94400001 -0.25600001 14
3.4949999 0.97799999 -0.208 16
3.6240001 1.013 -0.156 16
3.7739999 1.054 -0.1 17
3.915 1.092 -0.039999999 18
0 6.1440001 0 0
0 0 0 0
0 0 0 0
0 0 0 255
3.256 0.91600001 -0.29800001 18
3.372 0.94700003 -0.25299999 15
3.5050001 0.98199999 -0.205 16
3.6370001 1.018 -0.152 16
3.7820001 1.057 -0.096000001 17
3.9319999 1.099 -0.035999998 18
3.2720001 0.92199999 -0.296 17
3.3840001 0.95099998 -0.249 15
3.5139999 0.986 -0.20100001 16
3.6500001 1.022 -0.148 16
3.8010001 1.064 -0.092 17
3.9460001 1.103 -0.030999999 19
3.286 0.92500001 -0.29300001 17
3.395 0.954 -0.24600001 15
3.52 0.98699999 -0.197 16
3.6559999 1.024 -0.14399999 16
3.8069999 1.0650001 -0.088 17
3.957 1.107 -0.026000001 19
3.289 0.92500001 -0.289 16
3.4070001 0.95599997 -0.243 15
3.5250001 0.98699999 -0.193 16
3.6670001 1.026 -0.14 16
3.8169999 1.067 -0.082999997 19
3.9779999 1.1109999 -0.022 19
3.2980001 0.926 -0.28600001 17
3.414 0.95599997 -0.23899999 15
3.543 0.991 -0.19 16
3.6689999 1.025 -0.13600001 16
3.8239999 1.067 -0.079000004 19
3.9879999 1.113 -0.017000001 19
3.3039999 0.92500001 -0.28200001 17
3.4260001 0.958 -0.236 15
3.5480001 0.99000001 -0.186 16
3.688 1.027 -0.132 17
3.839 1.069 -0.075000003 18
3.9990001 1.113 -0.012 20
3.3110001 0.92400002 -0.27900001 17
3.4300001 0.95599997 -0.23199999 17
3.566 0.99199998 -0.182 15
3.6949999 1.026 -0.12800001 17
3.8510001 1.069 -0.07 18
4.0089998 1.112 -0.0070000002 20
3.3180001 0.92199999 -0.27500001 18
3.444 0.95599997 -0.229 17
3.575 0.99000001 -0.178 16
3.7049999 1.025 -0.124 17
3.8629999 1.068 -0.066 17
4.0190001 1.1109999 -0.003 19
3.3210001 0.91900003 -0.271 17
3.4519999 0.95300001 -0.22499999 17
3.586 0.98900002 -0.175 16
3.71 1.022 -0.12 16
3.8770001 1.067 -0.061000001 17
4.0300002 1.109 0.001 19
3.3340001 0.917 -0.26800001 16
3.464 0.95099998 -0.222 16
3.5940001 0.98500001 -0.171 16
3.7249999 1.02 -0.116 16
3.892 1.0650001 -0.057 19
4.046 1.107 0.0060000001 18
3.345 0.91500002 -0.26499999 17
3.471 0.94700003 -0.21799999 17
3.6010001 0.98100001 -0.167 17
3.74 1.018 -0.112 17
3.904 1.062 -0.052999999 19
4.0560002 1.103 0.011 17
3.358 0.912 -0.26199999 18
3.4790001 0.94199997 -0.214 16
3.6140001 0.977 -0.163 16
3.75 1.013 -0.108 16
3.918 1.058 -0.048 18
4.0689998 1.098 0.016000001 17
3.365 0.90600002 -0.259 17
3.4860001 0.93699998 -0.211 16
3.6259999 0.97299999 -0.15899999 16
3.7620001 1.008 -0.104 16
3.9289999 1.052 -0.044 18
4.0879998 1.095 0.02 18
3.375 0.90100002 -0.25600001 15
3.497 0.93199998 -0.207 16
3.6340001 0.96700001 -0.156 16
3.767 1.001 -0.1 17
3.927 1.043 -0.039999999 16
4.0970001 1.0880001 0.025 17
3.3840001 0.89499998 -0.252 19
3.5090001 0.926 -0.204 16
3.6459999 0.95999998 -0.152 15
3.7750001 0.99299997 -0.096000001 16
3.947 1.038 -0.035 17
4.112 1.081 0.028999999 19
3.388 0.88599998 -0.249 16
3.5209999 0.91900003 -0.20100001 18
3.6559999 0.95300001 -0.149 17
3.793 0.98799998 -0.092 17
3.9549999 1.029 -0.030999999 18
4.1279998 1.074 0.034000002 18
0 6.1440001 0 0
0 0 0 0
0 0 0 0
0 0 0 255
3.401 0.88 -0.24600001 16
3.53 0.912 -0.197 17
3.6700001 0.94599998 -0.145 18
3.802 0.97899997 -0.088 16
3.9690001 1.022 -0.027000001 21
4.1339998 1.064 0.037999999 19
3.4100001 0.87199998 -0.243 16
3.533 0.90100002 -0.19400001 19
3.675 0.93599999 -0.142 17
3.813 0.97000003 -0.085000001 16
3.984 1.013 -0.023 18
4.1430001 1.054 0.041999999 19
3.4170001 0.86199999 -0.23999999 18
3.5450001 0.89300001 -0.191 18
3.681 0.926 -0.138 17
3.8180001 0.95899999 -0.081 16
3.9890001 1.002 -0.02 18
4.1560001 1.044 0.046 18
3.4219999 0.852 -0.237 18
3.553 0.88300002 -0.18799999 17
3.697 0.917 -0.13500001 16
3.8299999 0.949 -0.078000002 19
4 0.991 -0.016000001 17
4.1669998 1.0319999 0.050000001 19
3.431 0.84200001 -0.235 19
3.562 0.87199998 -0.185 19
3.7 0.90399998 -0.132 16
3.8369999 0.93699998 -0.074000001 16
4.013 0.97899997 -0.012 18
4.1869998 1.022 0.054000001 21
3.4389999 0.82999998 -0.23199999 19
3.572 0.861 -0.183 22
3.7119999 0.89300001 -0.12899999 17
3.8429999 0.92400002 -0.071000002 16
4.026 0.96700001 -0.0089999996 19
4.1939998 1.007 0.057999998 19
3.4460001 0.81900001 -0.229 17
3.575 0.84799999 -0.18000001 17
3.717 0.88 -0.126 18
3.855 0.912 -0.068000004 16
4.0300002 0.95300001 -0.0060000001 19
4.21 0.995 0.061000001 21
3.457 0.80699998 -0.227 18
3.586 0.83600003 -0.177 18
3.723 0.866 -0.123 17
3.862 0.89700001 -0.064999998 17
4.04 0.93800002 -0.003 18
4.21 0.977 0.064999998 19
3.461 0.79299998 -0.22499999 17
3.5929999 0.82200003 -0.175 18
3.73 0.852 -0.121 17
3.872 0.88300002 -0.061999999 17
4.0440001 0.92199999 0 18
4.224 0.963 0.068000004 20
3.4690001 0.77999997 -0.223 20
3.605 0.80900002 -0.17299999 19
3.7420001 0.838 -0.118 17
3.8770001 0.86799997 -0.059999999 16
4.0580001 0.90700001 0.0020000001 17
4.2329998 0.94599998 0.071000002 20
3.4660001 0.764 -0.22 18
3.6070001 0.79299998 -0.17 17
3.7479999 0.82300001 -0.116 17
3.8870001 0.852 -0.057 18
4.0669999 0.89099997 0.0049999999 18
4.2350001 0.92799997 0.074000001 20
3.4809999 0.75 -0.21799999 20
3.612 0.77700001 -0.168 19
3.7550001 0.80599999 -0.114 18
3.892 0.83499998 -0.055 17
4.073 0.87300003 0.0070000002 18
4.244 0.91000003 0.075999998 20
3.484 0.73400003 -0.21600001 20
3.6140001 0.75999999 -0.16599999 18
3.7609999 0.79000002 -0.112 18
3.9000001 0.81800002 -0.052999999 18
4.0760002 0.85399997 0.0099999998 18
4.2589998 0.89200002 0.079000004 21
3.49 0.71799999 -0.215 19
3.625 0.74400002 -0.164 16
3.7620001 0.77100003 -0.109 19
3.9059999 0.80000001 -0.050999999 18
4.073 0.833 0.012 16
4.2610002 0.87099999 0.081 21
3.49 0.70099998 -0.213 15
3.6340001 0.72799999 -0.163 14
3.779 0.75599998 -0.108 17
3.9230001 0.78299999 -0.048999999 17
4.0910001 0.81599998 0.014 18
4.2740002 0.852 0.083999999 20
3.503 0.685 -0.212 20
3.6400001 0.70999998 -0.161 14
3.78 0.736 -0.106 16
3.9289999 0.764 -0.046999998 18
4.1020002 0.79699999 0.016000001 18
4.2789998 0.83099997 0.086000003 21
0 6.1440001 0 0
0 0 0 0
0 0 0 0
0 0 0 255
3.507 0.667 -0.20999999 19
3.645 0.69199997 -0.15899999 15
3.793 0.71799999 -0.105 18
3.9300001 0.74299997 -0.045000002 18
4.1030002 0.77499998 0.017999999 16
4.2800002 0.80800003 0.086999997 21
3.51 0.64899999 -0.20900001 18
3.651 0.67299998 -0.15800001 15
3.7780001 0.69499999 -0.103 15
3.9349999 0.72299999 -0.044 19
4.1090002 0.75400001 0.018999999 17
4.2909999 0.787 0.089000002 20
3.5179999 0.63099998 -0.208 22
3.648 0.65200001 -0.156 14
3.7909999 0.676 -0.102 16
3.937 0.70099998 -0.041999999 18
4.1090002 0.73100001 0.021 17
4.2969999 0.764 0.090999998 21
3.5239999 0.61199999 -0.207 21
3.6530001 0.63200003 -0.155 14
3.799 0.65600002 -0.101 16
3.944 0.68000001 -0.041000001 18
4.1209998 0.70999998 0.022 18
4.3039999 0.741 0.092 21
3.5220001 0.59200001 -0.205 19
3.6630001 0.61299998 -0.155 15
3.8039999 0.63599998 -0.098999999 16
3.9449999 0.65799999 -0.039999999 20
4.1300001 0.68699998 0.023 19
4.3060002 0.71600002 0.093000002 20
3.5280001 0.57099998 -0.204 18
3.6619999 0.59200001 -0.153 17
3.803 0.61299998 -0.097999997 16
3.96 0.63700002 -0.039000001 18
4.125 0.662 0.024 18
4.309 0.69099998 0.093999997 20
3.533 0.55199999 -0.204 17
3.6689999 0.57099998 -0.153 17
3.812 0.59200001 -0.097999997 15
3.9560001 0.61299998 -0.037999999 19
4.131 0.639 0.025 18
4.3109999 0.66500002 0.094999999 21
3.5339999 0.52999997 -0.20299999 20
3.668 0.54900002 -0.152 17
3.813 0.56900001 -0.097000003 16
3.96 0.58899999 -0.037 20
4.1370001 0.61400002 0.026000001 18
4.3210001 0.64099997 0.096000001 21
3.5369999 0.509 -0.20200001 17
3.675 0.52700001 -0.15099999 15
3.8180001 0.546 -0.096000001 17
3.961 0.565 -0.037 17
4.1370001 0.58899999 0.027000001 17
4.3239999 0.61400002 0.097000003 21
3.539 0.48800001 -0.20200001 17
3.678 0.505 -0.15099999 16
3.822 0.523 -0.096000001 16
3.9679999 0.54100001 -0.035999998 17
4.1420002 0.56400001 0.027000001 18
4.329 0.588 0.097000003 20
3.5420001 0.46599999 -0.20100001 17
3.684 0.48199999 -0.15099999 15
3.8269999 0.5 -0.096000001 17
3.9719999 0.51700002 -0.035999998 16
4.1469998 0.53799999 0.027000001 18
4.329 0.56099999 0.097999997 21
3.549 0.44400001 -0.20100001 19
3.6860001 0.45899999 -0.15000001 16
3.8310001 0.47600001 -0.094999999 17
3.974 0.49200001 -0.035999998 16
4.1459999 0.51200002 0.028000001 19
4.3340001 0.53399998 0.097999997 22
3.55 0.42199999 -0.20100001 19
3.6889999 0.43599999 -0.15000001 17
3.826 0.45100001 -0.094999999 16
3.9779999 0.46700001 -0.035 18
4.1479998 0.48500001 0.028000001 18
4.3340001 0.50599998 0.097999997 21
3.5510001 0.39899999 -0.20100001 17
3.6889999 0.412 -0.15000001 15
3.8299999 0.426 -0.094999999 16
3.9749999 0.44100001 -0.035 19
4.1529999 0.45899999 0.028000001 17
4.3379998 0.47799999 0.097999997 21
3.553 0.37599999 -0.2 16
3.6919999 0.38800001 -0.15000001 15
3.8380001 0.40200001 -0.094999999 17
3.9809999 0.41499999 -0.035 17
4.1560001 0.43200001 0.028000001 17
4.3439999 0.44999999 0.097999997 20
3.5580001 0.35299999 -0.20100001 16
3.6949999 0.36399999 -0.15000001 14
3.8369999 0.37599999 -0.093999997 16
3.984 0.389 -0.035 18
4.1589999 0.40400001 0.028000001 17
4.3460002 0.41999999 0.097999997 20
0 6.1440001 0 0
0 0 0 0
0 0 0 0
0 0 0 255
3.5580001 0.329 -0.2 14
3.697 0.33899999 -0.15000001 14
3.8380001 0.34999999 -0.094999999 15
3.9849999 0.36199999 -0.035 17
4.1630001 0.37599999 0.028000001 17
4.3439999 0.38999999 0.097999997 19
3.5610001 0.30500001 -0.20100001 16
3.7030001 0.315 -0.15000001 15
3.842 0.324 -0.094999999 14
3.9860001 0.33399999 -0.035 15
4.1690001 0.34799999 0.028000001 18
4.3400002 0.36000001 0.097999997 20
3.5669999 0.28099999 -0.20100001 13
3.6989999 0.289 -0.15000001 14
3.8429999 0.29800001 -0.094999999 14
3.9879999 0.30700001 -0.035 17
4.1570001 0.31799999 0.028000001 18
4.3470001 0.331 0.097999997 19
3.569 0.25600001 -0.20100001 16
3.7030001 0.264 -0.15000001 16
3.846 0.27200001 -0.094999999 15
3.99 0.28 -0.035999998 16
4.1630001 0.28999999 0.027000001 17
4.342 0.30000001 0.097000003 19
3.5669999 0.23100001 -0.20100001 14
3.7049999 0.23800001 -0.15000001 20
3.845 0.245 -0.094999999 14
3.9890001 0.252 -0.035999998 15
4.171 0.26100001 0.027000001 18
4.3460002 0.27000001 0.097000003 19
3.5669999 0.206 -0.20100001 13
3.7049999 0.212 -0.15000001 15
3.846 0.21799999 -0.096000001 17
3.9909999 0.22400001 -0.035999998 16
4.1729999 0.23199999 0.027000001 18
4.3460002 0.23899999 0.096000001 19
3.5739999 0.18099999 -0.20200001 13
3.7090001 0.186 -0.15099999 13
3.8499999 0.19 -0.096000001 17
3.9909999 0.19499999 -0.037 15
4.1719999 0.20200001 0.027000001 17
4.3520002 0.208 0.096000001 21
3.576 0.156 -0.20200001 15
3.7079999 0.16 -0.15099999 13
3.8529999 0.163 -0.096000001 14
3.997 0.167 -0.037 16
4.1729999 0.17200001 0.026000001 18
4.3530002 0.176 0.096000001 22
3.575 0.13 -0.20200001 14
3.7079999 0.133 -0.15099999 12
3.8540001 0.13500001 -0.097000003 14
3.997 0.138 -0.037 16
4.171 0.141 0.026000001 17
4.3499999 0.14399999 0.094999999 19
3.5799999 0.105 -0.20299999 16
3.7190001 0.106 -0.152 15
3.855 0.107 -0.097000003 14
3.9960001 0.108 -0.037999999 15
4.1729999 0.11 0.025 19
4.348 0.112 0.094999999 21
3.5739999 0.078000002 -0.20299999 15
3.7149999 0.079000004 -0.152 14
3.858 0.079000004 -0.097000003 14
3.994 0.079000004 -0.037999999 16
4.1799998 0.079999998 0.025 18
4.3520002 0.079999998 0.093999997 21
3.572 0.052000001 -0.20299999 16
3.7130001 0.052000001 -0.152 13
3.859 0.050999999 -0.097999997 14
3.9949999 0.050000001 -0.037999999 15
4.1810002 0.048999999 0.025 18
4.3590002 0.048 0.093999997 20
3.5780001 0.026000001 -0.20299999 16
3.72 0.025 -0.153 13
3.8570001 0.023 -0.097999997 14
4.0019999 0.02 -0.039000001 16
4.178 0.017999999 0.024 17
4.3610001 0.016000001 0.093999997 22
3.576 0 -0.20299999 17
3.7190001 -0.0020000001 -0.153 15
3.855 -0.0049999999 -0.097999997 15
4.0050001 -0.0080000004 -0.039000001 15
4.1830001 -0.012 0.024 19
4.3569999 -0.016000001 0.093000002 20
3.575 -0.026000001 -0.204 15
3.72 -0.029999999 -0.153 15
3.8610001 -0.034000002 -0.097999997 15
4.0110002 -0.039000001 -0.039000001 15
4.1820002 -0.044 0.024 19
4.369 -0.048999999 0.093000002 22
3.5780001 -0.052999999 -0.204 18
3.7149999 -0.057999998 -0.153 14
3.868 -0.063000001 -0.098999999 14
4.0139999 -0.068999998 -0.039999999 15
4.1880002 -0.075000003 0.023 18
4.3709998 -0.082000002 0.093000002 26
0 6.1440001 0 0
0 0 0 0
0 0 0 0
0 0 0 255
3.585 -0.079999998 -0.205 16
3.7179999 -0.086000003 -0.154 13
3.865 -0.093000002 -0.098999999 14
4.0170002 -0.1 -0.039999999 15
4.1939998 -0.107 0.023 19
4.3629999 -0.116 0.092 20
3.5899999 -0.107 -0.205 16
3.723 -0.114 -0.154 13
3.862 -0.122 -0.098999999 15
4.0149999 -0.13 -0.039999999 15
4.191 -0.14 0.023 17
4.3779998 -0.15000001 0.093000002 19
3.5869999 -0.13500001 -0.205 14
3.7249999 -0.14300001 -0.154 12
3.868 -0.152 -0.1 14
4.0089998 -0.161 -0.039999999 12
4.1929998 -0.17200001 0.023 17
4.3779998 -0.184 0.092 19
3.5880001 -0.162 -0.205 14
3.7320001 -0.17200001 -0.155 13
3.8710001 -0.182 -0.1 13
4.0019999 -0.192 -0.039999999 10
4.198 -0.206 0.023 16
4.3790002 -0.219 0.092 20
3.585 -0.19 -0.205 14
3.7309999 -0.20100001 -0.155 13
3.868 -0.212 -0.1 14
4.0100002 -0.22400001 -0.039999999 13
4.197 -0.23800001 0.023 16
4.3839998 -0.25299999 0.092 19
3.5940001 -0.219 -0.206 14
3.724 -0.23 -0.155 14
3.869 -0.242 -0.1 14
4.0240002 -0.25600001 -0.041000001 15
4.198 -0.271 0.023 15
4.382 -0.28799999 0.092 19
3.596 -0.24699999 -0.206 15
3.7260001 -0.259 -0.155 12
3.8740001 -0.273 -0.1 14
4.0289998 -0.28799999 -0.041000001 15
4.2030001 -0.30500001 0.023 15
4.3920002 -0.32300001 0.093000002 19
3.5940001 -0.27500001 -0.206 15
3.7349999 -0.289 -0.155 13
3.8770001 -0.30399999 -0.1 14
4.0339999 -0.32100001 -0.039999999 16
4.2069998 -0.33899999 0.023 16
4.3889999 -0.359 0.093000002 19
3.592 -0.303 -0.206 14
3.7420001 -0.31999999 -0.155 13
3.8770001 -0.33500001 -0.1 14
4.0300002 -0.352 -0.039999999 15
4.2059999 -0.37200001 0.023 15
4.3899999 -0.39399999 0.093000002 18
3.6010001 -0.33199999 -0.206 16
3.7349999 -0.34900001 -0.155 14
3.882 -0.366 -0.1 14
4.0289998 -0.38499999 -0.039999999 15
4.2129998 -0.40700001 0.024 19
4.3979998 -0.43000001 0.093999997 19
3.602 -0.361 -0.206 16
3.7409999 -0.37900001 -0.155 13
3.8800001 -0.39700001 -0.098999999 13
4.04 -0.41800001 -0.039999999 17
4.217 -0.44100001 0.024 17
4.4050002 -0.46599999 0.094999999 20
3.605 -0.38999999 -0.206 14
3.74 -0.40900001 -0.154 12
3.8859999 -0.42899999 -0.098999999 14
4.0409999 -0.45100001 -0.039000001 14
4.2270002 -0.477 0.025 15
4.4099998 -0.50300002 0.094999999 20
3.6110001 -0.41999999 -0.206 14
3.747 -0.44 -0.154 16
3.8929999 -0.461 -0.098999999 14
4.04 -0.484 -0.039000001 14
4.223 -0.51099998 0.025 16
4.421 -0.54000002 0.096000001 20
3.6099999 -0.449 -0.205 15
3.753 -0.47099999 -0.154 14
3.8929999 -0.493 -0.097999997 14
4.0580001 -0.51899999 -0.037999999 15
4.2309999 -0.546 0.026000001 16
4.4219999 -0.57700002 0.097000003 20
3.618 -0.47999999 -0.206 14
3.7590001 -0.50199997 -0.154 15
3.8959999 -0.52499998 -0.097999997 14
4.052 -0.551 -0.037999999 14
4.2379999 -0.58200002 0.027000001 17
4.4250002 -0.61400002 0.097999997 19
3.6210001 -0.50999999 -0.205 14
3.757 -0.53299999 -0.153 14
3.8989999 -0.55800003 -0.097000003 15
4.0650001 -0.58700001 -0.037 15
4.2459998 -0.61900002 0.028000001 17
4.4330001 -0.65200001 0.098999999 20
0 6.1440001 0 0
0 0 0 0
0 0 0 0
0 0 0 255
3.6129999 -0.53799999 -0.204 16
3.7650001 -0.565 -0.153 13
3.9089999 -0.59200001 -0.097000003 15
4.0669999 -0.62099999 -0.035999998 14
4.244 -0.65399998 0.028999999 18
4.441 -0.69099998 0.1 20
3.6300001 -0.57099998 -0.205 14
3.77 -0.59799999 -0.153 13
3.9159999 -0.62599999 -0.096000001 14
4.072 -0.65600002 -0.035 15
4.2620001 -0.69300002 0.029999999 18
4.4460001 -0.72899997 0.102 20
3.6300001 -0.60100001 -0.204 14
3.7739999 -0.63 -0.152 13
3.9170001 -0.65899998 -0.094999999 14
4.0809999 -0.69199997 -0.034000002 16
4.2639999 -0.72899997 0.030999999 17
4.4569998 -0.76899999 0.104 20
3.6370001 -0.63300002 -0.204 13
3.7820001 -0.66299999 -0.15099999 15
3.9230001 -0.69300002 -0.093999997 13
4.0840001 -0.727 -0.033 15
4.2719998 -0.76700002 0.032000002 18
4.4660001 -0.80900002 0.105 21
3.6400001 -0.66399997 -0.20299999 13
3.7869999 -0.69599998 -0.15099999 14
3.928 -0.727 -0.093000002 15
4.0890002 -0.76300001 -0.032000002 15
4.2779999 -0.80500001 0.034000002 16
4.4679999 -0.84799999 0.107 21
3.6429999 -0.69599998 -0.20200001 15
3.7850001 -0.72799999 -0.149 13
3.937 -0.76300001 -0.092 15
4.0949998 -0.79900002 -0.030999999 16
4.2870002 -0.84299999 0.035999998 19
4.4759998 -0.88800001 0.109 21
3.6429999 -0.727 -0.20100001 14
3.7869999 -0.76099998 -0.148 14
3.941 -0.79699999 -0.090999998 14
4.1030002 -0.83600003 -0.028999999 15
4.296 -0.88200003 0.037 17
4.4860001 -0.92900002 0.111 20
3.6570001 -0.76099998 -0.20100001 15
3.7980001 -0.796 -0.148 14
3.95 -0.833 -0.090000004 15
4.1040001 -0.87199998 -0.028000001 15
4.3060002 -0.92199999 0.039000001 16
4.4980001 -0.97100002 0.113 20
3.665 -0.79500002 -0.2 17
3.803 -0.82999998 -0.147 15
3.954 -0.86900002 -0.089000002 18
4.1230001 -0.912 -0.026000001 16
4.3150001 -0.96200001 0.041000001 17
4.5040002 -1.012 0.116 21
3.668 -0.82700002 -0.199 13
3.8099999 -0.86400002 -0.145 14
3.964 -0.90499997 -0.086999997 15
4.1279998 -0.949 -0.024 17
4.3239999 -1.002 0.043000001 18
4.513 -1.054 0.118 20
3.6719999 -0.85900003 -0.198 20
3.812 -0.898 -0.14399999 14
3.964 -0.94 -0.086000003 15
4.1350002 -0.98699999 -0.022 16
4.3319998 -1.0420001 0.046 20
4.5219998 -1.096 0.121 22
3.678 -0.89300001 -0.197 15
3.8210001 -0.93400002 -0.14300001 15
3.9749999 -0.97799999 -0.083999999 15
4.1399999 -1.025 -0.02 15
4.3429999 -1.0829999 0.048 17
4.533 -1.1390001 0.124 21
3.6860001 -0.92799997 -0.19599999 14
3.826 -0.96899998 -0.141 14
3.977 -1.013 -0.082000002 15
4.1550002 -1.066 -0.018999999 17
4.3530002 -1.124 0.050000001 17
4.5450001 -1.183 0.127 21
3.694 -0.96200001 -0.19499999 16
3.8340001 -1.0039999 -0.14 14
3.9849999 -1.051 -0.081 15
4.1570001 -1.103 -0.016000001 16
4.355 -1.164 0.052999999 17
4.5580001 -1.228 0.13 19
3.6930001 -0.995 -0.193 15
3.836 -1.039 -0.138 13
3.9960001 -1.089 -0.079000004 14
4.1690001 -1.1440001 -0.014 15
4.369 -1.2079999 0.056000002 16
4.573 -1.274 0.133 19
3.7090001 -1.033 -0.193 16
3.848 -1.077 -0.13699999 13
4.0100002 -1.13 -0.077 16
4.1820002 -1.186 -0.012 16
4.3759999 -1.25 0.059 16
4.5770001 -1.317 0.13600001 19
0 6.1440001 0 0
0 0 0 0
0 0 0 0
0 0 0 255
3.7149999 -1.068 -0.191 16
3.8540001 -1.114 -0.13500001 13
4.0139999 -1.168 -0.075000003 15
4.1960001 -1.228 -0.0089999996 15
4.3899999 -1.294 0.061999999 14
4.5929999 -1.364 0.14 17
3.7219999 -1.104 -0.19 16
3.862 -1.152 -0.133 14
4.0219998 -1.206 -0.072999999 14
4.204 -1.2690001 -0.0070000002 17
4.401 -1.337 0.064999998 14
4.605 -1.41 0.14399999 16
3.7290001 -1.1390001 -0.18799999 14
3.8729999 -1.1900001 -0.132 14
4.0300002 -1.245 -0.07 14
4.2179999 -1.312 -0.0040000002 15
4.4120002 -1.381 0.068000004 15
4.6160002 -1.456 0.148 16
3.737 -1.176 -0.18700001 13
3.8729999 -1.226 -0.12899999 13
4.046 -1.288 -0.068000004 14
4.2309999 -1.355 -0.001 16
4.427 -1.428 0.071000002 14
4.6389999 -1.507 0.152 14
3.7449999 -1.2130001 -0.185 13
3.885 -1.265 -0.12800001 13
4.059 -1.329 -0.066 15
4.2319999 -1.395 0.001 14
4.4439998 -1.475 0.075000003 15
4.6469998 -1.553 0.156 17
3.7520001 -1.25 -0.184 14
3.891 -1.303 -0.125 13
4.0679998 -1.37 -0.063000001 15
4.2420001 -1.438 0.0040000002 14
4.4559999 -1.52 0.078000002 13
4.6729999 -1.605 0.161 15
3.757 -1.286 -0.182 14
3.911 -1.346 -0.124 17
4.0749998 -1.41 -0.061000001 17
4.2589998 -1.483 0.0070000002 17
4.4629998 -1.5650001 0.082000002 18
4.6890001 -1.656 0.16500001 18
3.7679999 -1.325 -0.18000001 17
3.918 -1.385 -0.121 17
4.0890002 -1.454 -0.057999998 17
4.2729998 -1.529 0.0099999998 17
4.4780002 -1.613 0.086000003 17
4.7049999 -1.707 0.17 18
3.7780001 -1.364 -0.178 17
3.9289999 -1.426 -0.119 7
4.1030002 -1.498 -0.056000002 17
4.2859998 -1.575 0.013 15
4.4949999 -1.6619999 0.090000004 17
4.7319999 -1.762 0.175 20
3.7869999 -1.403 -0.176 16
3.928 -1.4630001 -0.117 15
4.112 -1.541 -0.052999999 17
4.309 -1.624 0.017000001 14
4.5110002 -1.711 0.093999997 19
4.7470002 -1.813 0.18000001 19
3.796 -1.443 -0.17399999 19
3.9460001 -1.507 -0.115 15
4.1329999 -1.5880001 -0.050000001 15
4.3109999 -1.6670001 0.02 16
4.5300002 -1.762 0.097999997 17
4.77 -1.869 0.185 19
3.803 -1.482 -0.17200001 16
3.954 -1.548 -0.112 15
4.1399999 -1.63 -0.046999998 18
4.335 -1.717 0.024 17
4.5440001 -1.812 0.103 19
4.783 -1.92 0.19 21
3.8150001 -1.523 -0.171 17
3.9719999 -1.594 -0.11 15
4.1490002 -1.674 -0.044 16
4.335 -1.76 0.027000001 16
4.5580001 -1.862 0.107 19
4.8070002 -1.978 0.19499999 21
3.825 -1.564 -0.168 16
3.9809999 -1.636 -0.107 15
4.1630001 -1.72 -0.041000001 16
4.3520002 -1.809 0.030999999 19
4.5780001 -1.915 0.112 19
4.836 -2.0380001 0.20100001 21
3.823 -1.601 -0.16599999 16
3.9949999 -1.681 -0.105 14
4.1810002 -1.7690001 -0.037999999 15
4.3649998 -1.857 0.035 15
4.5960002 -1.969 0.116 16
4.8600001 -2.096 0.207 19
3.8410001 -1.645 -0.164 15
4.0050001 -1.724 -0.102 15
4.1830001 -1.811 -0.035 16
4.3769999 -1.906 0.039000001 16
4.6230001 -2.026 0.121 18
4.8740001 -2.151 0.213 19
0 6.1440001 0 0
0 0 0 0
0 0 0 0
0 0 0 255
3.8499999 -1.687 -0.162 17
4.013 -1.767 -0.1 15
4.1960001 -1.858 -0.030999999 16
4.3969998 -1.9579999 0.043000001 14
4.6370001 -2.0780001 0.126 16
4.8920002 -2.2079999 0.21799999 18
3.8540001 -1.727 -0.16 16
4.027 -1.813 -0.097000003 15
4.2150002 -1.9069999 -0.028000001 16
4.414 -2.01 0.046 16
4.6599998 -2.135 0.131 15
4.914 -2.267 0.22400001 17
3.8599999 -1.767 -0.15800001 18
4.0359998 -1.857 -0.093999997 18
4.2280002 -1.956 -0.025 15
4.4310002 -2.062 0.050999999 15
4.6799998 -2.191 0.13600001 17
4.9419999 -2.3299999 0.23 19
3.875 -1.813 -0.156 16
4.052 -1.905 -0.092 15
4.2399998 -2.003 -0.022 15
4.4520001 -2.1159999 0.055 15
4.7030001 -2.25 0.141 17
4.9580002 -2.388 0.236 19
3.891 -1.859 -0.154 16
4.066 -1.952 -0.089000002 14
4.2509999 -2.0510001 -0.017999999 17
4.4650002 -2.1670001 0.059 17
4.7259998 -2.309 0.146 16
4.994 -2.4560001 0.243 17
3.9030001 -1.904 -0.152 16
4.079 -1.999 -0.086999997 14
4.27 -2.1040001 -0.015 17
4.4910002 -2.2260001 0.063000001 14
4.7470002 -2.368 0.15099999 16
5.0180001 -2.5209999 0.249 17
3.915 -1.949 -0.15000001 17
4.0809999 -2.0420001 -0.083999999 15
4.2789998 -2.152 -0.012 15
4.4980001 -2.2750001 0.067000002 15
4.7620001 -2.424 0.156 17
5.0339999 -2.5799999 0.255 16
3.9100001 -1.9859999 -0.147 17
4.098 -2.092 -0.081 15
4.2909999 -2.201 -0.0080000004 15
4.5180001 -2.332 0.071000002 14
4.7800002 -2.4820001 0.161 16
5.066 -2.6489999 0.26199999 16
3.9300001 -2.036 -0.145 16
4.0910001 -2.1300001 -0.078000002 21
4.3119998 -2.256 -0.0049999999 17
4.533 -2.3859999 0.075000003 16
4.8010001 -2.543 0.16599999 17
5.085 -2.7119999 0.26800001 19
3.9460001 -2.085 -0.14300001 18
4.1129999 -2.1830001 -0.075999998 16
4.3299999 -2.3099999 -0.0020000001 18
4.5549998 -2.444 0.079000004 17
4.816 -2.5999999 0.171 18
5.1100001 -2.777 0.27500001 20
3.9519999 -2.128 -0.141 17
4.1279998 -2.2320001 -0.072999999 17
4.3390002 -2.359 0.001 16
4.5689998 -2.4979999 0.082999997 17
4.8439999 -2.665 0.177 18
5.131 -2.842 0.28099999 20
3.96 -2.1719999 -0.139 16
4.1469998 -2.2850001 -0.071000002 15
4.3530002 -2.411 0.0040000002 16
4.5770001 -2.55 0.086999997 17
4.862 -2.7249999 0.182 19
5.1589999 -2.9119999 0.28799999 21
3.9690001 -2.2179999 -0.13699999 15
4.1529999 -2.3310001 -0.068000004 16
4.3649998 -2.4619999 0.0070000002 17
4.6059999 -2.6129999 0.092 17
4.8839998 -2.7880001 0.18700001 18
5.1739998 -2.974 0.294 19
3.9860001 -2.2679999 -0.13600001 14
4.1669998 -2.382 -0.066 14
4.382 -2.517 0.0099999998 17
4.6230001 -2.671 0.096000001 17
4.8979998 -2.8469999 0.192 17
5.1880002 -3.036 0.29899999 19
3.9890001 -2.3099999 -0.134 17
4.184 -2.434 -0.063000001 15
4.3899999 -2.5669999 0.013 17
4.6409998 -2.7290001 0.1 17
4.9229999 -2.9119999 0.197 17
5.2340002 -3.1170001 0.30700001 17
4.0009999 -2.358 -0.132 16
4.197 -2.4849999 -0.061000001 15
4.4070001 -2.622 0.016000001 16
4.6550002 -2.7850001 0.103 17
4.9439998 -2.9760001 0.20200001 18
5.2519999 -3.1830001 0.31299999 16
0 6.1440001 0 0
0 0 0 0
0 0 0 0
0 0 0 255
4.0019999 -2.4000001 -0.13 17
4.2080002 -2.5339999 -0.059 16
4.4200001 -2.675 0.018999999 17
4.671 -2.842 0.107 17
4.9749999 -3.046 0.207 15
5.2709999 -3.2490001 0.31900001 16
4.0139999 -2.448 -0.12800001 15
4.2189999 -2.5840001 -0.057 15
4.4359999 -2.7309999 0.022 16
4.6849999 -2.8989999 0.111 15
4.993 -3.108 0.212 15
5.2870002 -3.313 0.324 16
4.026 -2.4960001 -0.127 15
4.2340002 -2.6359999 -0.055 15
4.4450002 -2.7809999 0.025 17
4.6950002 -2.954 0.114 16
4.9549999 -3.1359999 0.214 17
5.3189998 -3.388 0.331 16
4.0339999 -2.5420001 -0.126 16
4.2350001 -2.6800001 -0.052999999 14
4.4569998 -2.8340001 0.027000001 18
4.7189999 -3.017 0.118 14
5.0250001 -3.2320001 0.221 15
5.335 -3.454 0.336 17
4.0450001 -2.5899999 -0.124 14
4.25 -2.7320001 -0.050999999 15
4.4590001 -2.8800001 0.029999999 16
4.7319999 -3.073 0.121 14
5.0450001 -3.2950001 0.22499999 16
5.355 -3.5209999 0.34200001 17
4.053 -2.6359999 -0.123 14
4.263 -2.7839999 -0.048999999 15
4.4679999 -2.9319999 0.032000002 15
4.744 -3.1289999 0.124 14
5.0619998 -3.358 0.229 16
5.3720002 -3.586 0.347 16
4.059 -2.6800001 -0.122 14
4.2709999 -2.8310001 -0.046999998 14
4.48 -2.983 0.034000002 15
4.77 -3.1930001 0.12800001 15
5.0669999 -3.4119999 0.233 15
5.3990002 -3.6600001 0.35299999 17
4.0739999 -2.7309999 -0.122 13
4.2740002 -2.8759999 -0.046 14
4.4920001 -3.0369999 0.035999998 15
4.776 -3.2449999 0.13 15
5.092 -3.48 0.237 16
5.4169998 -3.7260001 0.35699999 16
4.0799999 -2.7750001 -0.121 14
4.2810001 -2.9230001 -0.045000002 14
4.5300002 -3.1070001 0.039000001 14
4.7940001 -3.3050001 0.133 16
5.1059999 -3.54 0.241 16
5.4330001 -3.79 0.36199999 16
4.0900002 -2.822 -0.12 15
4.2859998 -2.9690001 -0.044 14
4.546 -3.1619999 0.039999999 14
4.8039999 -3.358 0.13500001 15
5.1209998 -3.6010001 0.244 16
5.4530001 -3.8570001 0.366 16
4.0949998 -2.865 -0.12 14
4.2969999 -3.0179999 -0.043000001 14
4.5489998 -3.2079999 0.041999999 15
4.8169999 -3.414 0.138 17
5.1290002 -3.655 0.24699999 17
5.473 -3.925 0.37099999 17
4.1020002 -2.9089999 -0.119 17
4.3070002 -3.066 -0.041999999 16
4.5539999 -3.2550001 0.043000001 17
4.8299999 -3.4690001 0.14 18
5.1459999 -3.7160001 0.25 18
5.493 -3.9909999 0.375 17
4.1079998 -2.9530001 -0.119 17
4.3099999 -3.109 -0.041000001 16
4.5669999 -3.3080001 0.044 17
4.8390002 -3.5209999 0.141 18
5.1560001 -3.7720001 0.252 17
5.506 -4.053 0.37799999 17
4.1079998 -2.9909999 -0.119 18
4.3179998 -3.154 -0.041000001 16
4.5739999 -3.355 0.045000002 17
4.8470001 -3.5710001 0.14300001 16
5.164 -3.825 0.25400001 16
5.5240002 -4.1170001 0.382 17
4.1149998 -3.0339999 -0.119 17
4.3410001 -3.211 -0.041000001 15
4.5760002 -3.398 0.046 16
4.855 -3.6210001 0.14399999 17
5.1810002 -3.8840001 0.25600001 17
5.5440001 -4.1810002 0.38499999 15
4.1170001 -3.072 -0.119 17
0 0 0 0
4.579 -3.441 0.046 16
4.8649998 -3.6719999 0.145 17
5.1939998 -3.9400001 0.259 16
5.5539999 -4.237 0.38800001 16
0 6.1440001 0 0
0 0 0 0
0 0 0 0
0 0 0 255
4.1230001 -3.1129999 -0.12 17
4.3049998 -3.26 -0.039999999 16
4.5840001 -3.4849999 0.046 16
4.8699999 -3.7179999 0.146 16
5.2010002 -3.99 0.25999999 17
5.5630002 -4.2919998 0.38999999 16
4.1209998 -3.148 -0.121 17
4.3470001 -3.3299999 -0.041000001 15
4.5890002 -3.5280001 0.046999998 15
4.875 -3.763 0.147 16
5.2069998 -4.039 0.26100001 15
5.5650001 -4.3400002 0.391 16
4.1230001 -3.184 -0.121 18
0 0 0 0
4.599 -3.573 0.046 16
4.8769999 -3.8050001 0.146 16
5.2179999 -4.0900002 0.26199999 15
5.5809999 -4.3979998 0.39300001 13
4.1290002 -3.223 -0.123 17
4.3509998 -3.404 -0.041999999 15
4.6030002 -3.6129999 0.046 15
4.8870001 -3.8510001 0.147 16
5.2249999 -4.1360002 0.26199999 15
5.5879998 -4.447 0.39399999 13
4.1230001 -3.25 -0.123 17
4.3499999 -3.437 -0.043000001 14
4.6030002 -3.648 0.045000002 16
4.8889999 -3.8900001 0.146 15
5.2309999 -4.1799998 0.26199999 15
5.5970001 -4.4949999 0.39399999 13
4.1230001 -3.2809999 -0.125 16
4.3470001 -3.4679999 -0.044 15
4.6009998 -3.681 0.044 16
4.8839998 -3.921 0.146 16
5.2319999 -4.2179999 0.26199999 15
5.6020002 -4.539 0.39500001 13
4.1199999 -3.309 -0.126 15
4.348 -3.4990001 -0.046 15
4.598 -3.71 0.043000001 16
4.8829999 -3.954 0.14399999 17
5.2360001 -4.257 0.26100001 13
5.6090002 -4.5830002 0.39399999 13
4.1290002 -3.345 -0.12800001 15
4.3520002 -3.5320001 -0.046999998 15
4.6059999 -3.7490001 0.041999999 15
4.8920002 -3.994 0.14399999 16
5.244 -4.2979999 0.26100001 12
5.612 -4.6209998 0.39300001 13
4.1160002 -3.362 -0.13 16
4.3460002 -3.556 -0.048999999 14
4.605 -3.777 0.039999999 15
4.8930001 -4.026 0.142 15
5.243 -4.3299999 0.259 12
5.6139998 -4.6560001 0.39300001 13
4.1209998 -3.392 -0.132 15
4.348 -3.5840001 -0.050999999 14
4.5999999 -3.8 0.037999999 15
4.8899999 -4.052 0.141 15
5.2420001 -4.3590002 0.25799999 12
5.619 -4.6929998 0.39199999 13
4.112 -3.4089999 -0.133 16
4.342 -3.6040001 -0.052999999 14
4.6009998 -3.8269999 0.035999998 15
4.888 -4.0770001 0.138 16
5.2399998 -4.3860002 0.25600001 13
5.6290002 -4.7309999 0.391 13
4.1240001 -3.4419999 -0.13600001 14
4.3439999 -3.6300001 -0.055 14
4.599 -3.849 0.034000002 15
4.8790002 -4.0949998 0.13600001 15
5.237 -4.4089999 0.25299999 13
5.6129999 -4.744 0.38699999 18
4.1220002 -3.461 -0.138 14
4.3340001 -3.6429999 -0.057 14
4.592 -3.8659999 0.032000002 15
4.8800001 -4.118 0.134 14
5.2340002 -4.4299998 0.25099999 14
5.605 -4.7620001 0.384 23
4.1069999 -3.4679999 -0.141 15
4.3309999 -3.6600001 -0.059999999 16
4.5890002 -3.8840001 0.028999999 18
4.8790002 -4.138 0.131 15
5.23 -4.448 0.248 15
5.6069999 -4.7849998 0.382 17
4.1059999 -3.4860001 -0.14300001 15
4.329 -3.6760001 -0.061999999 16
4.5809999 -3.895 0.027000001 17
4.8699999 -4.1479998 0.12800001 15
5.223 -4.461 0.245 15
5.5970001 -4.796 0.37799999 18
4.0999999 -3.4960001 -0.146 15
4.3150001 -3.681 -0.064999998 15
4.5710001 -3.902 0.024 16
4.8610001 -4.1570001 0.125 17
5.21 -4.4660001 0.242 15
5.586 -4.803 0.37400001 20
0 6.1440001 0 0
0 0 0 0
0 0 0 0
0 0 0 255
4.0900002 -3.5009999 -0.148 15
4.3130002 -3.6919999 -0.068000004 15
4.573 -3.918 0.021 18
4.8600001 -4.1690001 0.122 15
5.2059999 -4.4759998 0.23800001 14
5.573 -4.8049998 0.37099999 19
4.0929999 -3.5150001 -0.15099999 16
4.3049998 -3.697 -0.07 15
4.5640001 -3.921 0.017999999 17
4.8499999 -4.1729999 0.119 16
5.1929998 -4.4759998 0.234 14
5.5619998 -4.8070002 0.366 19
4.0799999 -3.5139999 -0.153 15
4.3000002 -3.7019999 -0.072999999 16
4.5539999 -3.921 0.015 16
4.8410001 -4.1729999 0.115 17
5.1919999 -4.4829998 0.23100001 14
5.5450001 -4.7989998 0.361 20
4.0770001 -3.5190001 -0.156 15
4.2919998 -3.7030001 -0.075999998 15
4.5469999 -3.9230001 0.012 17
4.8340001 -4.1729999 0.112 15
5.178 -4.4770002 0.227 14
5.5419998 -4.802 0.35800001 20
4.0739999 -3.5220001 -0.15899999 16
4.2849998 -3.7019999 -0.079000004 15
4.54 -3.921 0.0080000004 17
4.822 -4.1659999 0.108 14
5.1630001 -4.467 0.223 14
5.5320001 -4.7950001 0.35299999 19
4.0630002 -3.517 -0.162 15
4.2810001 -3.701 -0.082000002 15
4.5279999 -3.9130001 0.0049999999 18
4.8140001 -4.1609998 0.105 14
5.1529999 -4.4580002 0.219 14
5.5159998 -4.7800002 0.34799999 19
4.0489998 -3.506 -0.164 15
4.2670002 -3.6889999 -0.085000001 15
4.5180001 -3.904 0.0020000001 18
4.8060002 -4.1529999 0.101 15
5.1370001 -4.4429998 0.214 14
5.4959998 -4.7600002 0.34299999 20
4.0479999 -3.5039999 -0.167 15
4.257 -3.6789999 -0.088 15
4.5120001 -3.8959999 0 18
4.79 -4.1350002 0.097000003 15
5.1230001 -4.4250002 0.20999999 14
5.4829998 -4.7420001 0.338 20
4.0370002 -3.4920001 -0.169 15
4.2519999 -3.671 -0.090000004 15
4.5009999 -3.881 -0.003 17
4.7789998 -4.1199999 0.093999997 16
5.112 -4.408 0.206 14
5.474 -4.7249999 0.333 18
4.0279999 -3.4790001 -0.171 15
4.2399998 -3.655 -0.093000002 16
4.4910002 -3.8659999 -0.0060000001 16
4.7670002 -4.1009998 0.090000004 15
5.1020002 -4.3889999 0.20200001 15
5.454 -4.6960001 0.32800001 18
4.0229998 -3.4679999 -0.17399999 15
4.2360001 -3.6429999 -0.096000001 15
4.4759998 -3.8429999 -0.0099999998 17
4.7509999 -4.0760002 0.086999997 15
