# .PCD v0.7 - Point Cloud Data file format
VERSION 0.7
FIELDS x y z intensity
SIZE 4 4 4 4
TYPE F F F F
COUNT 1 1 1 1
WIDTH 1641
HEIGHT 1
VIEWPOINT 0 0 0 1 0 0 0
POINTS 1641
DATA ascii
5.0970001 -3.832 0.23 18
5.428 -4.0710001 0.35100001 18
4.0710001 -3.075 -0.13600001 18
4.27 -3.2090001 -0.059 17
4.5149999 -3.378 0.026000001 16
4.7800002 -3.562 0.121 17
5.085 -3.7780001 0.228 16
5.421 -4.0170002 0.34900001 18
0 6.1440001 0 0
0 0 0 0
0 0 0 0
0 0 0 255
4.0739999 -3.0420001 -0.13600001 17
4.2709999 -3.1719999 -0.057999998 19
4.4949999 -3.322 0.025 19
4.7789998 -3.5190001 0.12 17
5.0809999 -3.7279999 0.227 17
5.4099998 -3.9590001 0.347 18
4.0710001 -3.0020001 -0.13500001 17
4.2620001 -3.1259999 -0.057999998 17
4.5139999 -3.2950001 0.025 17
4.7709999 -3.4679999 0.12 18
5.0710001 -3.674 0.226 18
5.3920002 -3.8959999 0.345 17
4.0650001 -2.96 -0.134 18
4.2659998 -3.089 -0.057999998 19
4.5120001 -3.2509999 0.026000001 17
4.7709999 -3.424 0.12 19
5.0700002 -3.625 0.22499999 17
5.388 -3.8410001 0.34400001 19
4.0619998 -2.9189999 -0.133 18
4.263 -3.0469999 -0.056000002 18
4.4749999 -3.1819999 0.026000001 18
4.756 -3.368 0.12 17
5.0689998 -3.576 0.22499999 19
5.381 -3.7839999 0.34299999 19
4.0619998 -2.8800001 -0.132 18
4.2600002 -3.003 -0.055 16
4.5040002 -3.1600001 0.027000001 14
4.7540002 -3.3210001 0.12 15
5.0580001 -3.52 0.22499999 15
5.3670001 -3.723 0.34099999 15
4.059 -2.839 -0.13 15
4.263 -2.964 -0.054000001 15
4.4889998 -3.1059999 0.028000001 18
4.7519999 -3.273 0.121 15
5.0539999 -3.4679999 0.22499999 15
5.3670001 -3.671 0.34099999 16
4.0619998 -2.8010001 -0.12899999 16
4.2600002 -2.921 -0.052999999 15
4.4850001 -3.059 0.028999999 18
4.744 -3.221 0.121 16
5.0549998 -3.418 0.22499999 16
5.3610001 -3.6129999 0.34099999 16
4.0599999 -2.7590001 -0.127 16
4.2540002 -2.8740001 -0.050999999 16
4.4629998 -2.9990001 0.029999999 16
4.7470002 -3.175 0.122 15
5.0539999 -3.3670001 0.226 15
5.3499999 -3.552 0.34099999 16
4.0539999 -2.714 -0.124 15
4.256 -2.832 -0.050000001 15
4.4689999 -2.9579999 0.032000002 16
4.7389998 -3.1229999 0.123 14
5.0440001 -3.3099999 0.226 15
5.348 -3.497 0.34099999 16
4.0549998 -2.674 -0.122 16
4.2639999 -2.7950001 -0.048 16
4.473 -2.9170001 0.033 17
4.7340002 -3.072 0.124 15
5.0419998 -3.2579999 0.227 15
5.3460002 -3.4419999 0.34099999 16
4.0570002 -2.6340001 -0.12 16
4.2620001 -2.75 -0.046 16
4.4679999 -2.868 0.035 16
4.7249999 -3.0179999 0.125 16
5.0409999 -3.207 0.228 14
5.342 -3.3859999 0.34200001 16
4.0599999 -2.5940001 -0.118 17
4.2610002 -2.707 -0.044 16
4.474 -2.826 0.037 18
4.7319999 -2.9749999 0.12800001 17
5.0349998 -3.151 0.229 14
5.335 -3.326 0.34299999 15
4.0609999 -2.553 -0.115 18
4.2690001 -2.668 -0.041000001 16
4.4809999 -2.7850001 0.039000001 17
4.7350001 -2.928 0.12899999 17
4.993 -3.0739999 0.229 16
5.3379998 -3.2739999 0.34400001 15
4.0760002 -2.5209999 -0.113 16
4.2659998 -2.622 -0.039000001 17
4.487 -2.7420001 0.041000001 18
4.7379999 -2.882 0.131 18
5.0190001 -3.0380001 0.23199999 16
5.3390002 -3.22 0.345 16
4.0679998 -2.473 -0.11 20
4.2680001 -2.579 -0.035999998 16
4.4819999 -2.6930001 0.044 18
4.7329998 -2.8299999 0.134 17
5.0320001 -2.9949999 0.234 16
5.336 -3.1630001 0.347 15
4.0710001 -2.4330001 -0.107 17
4.2719998 -2.5369999 -0.034000002 16
4.4860001 -2.6489999 0.046 17
4.7350001 -2.7820001 0.13600001 18
5.0240002 -2.938 0.236 18
5.289 -3.0810001 0.345 17
0 6.1440001 0 0
0 0 0 0
0 0 0 0
0 0 0 255
4.0799999 -2.3959999 -0.104 16
4.27 -2.4920001 -0.030999999 18
4.4860001 -2.6029999 0.048999999 18
4.7410002 -2.7360001 0.138 17
5.0300002 -2.8900001 0.23899999 18
5.3179998 -3.043 0.34900001 17
4.0799999 -2.3529999 -0.101 19
4.2750001 -2.45 -0.028000001 18
4.487 -2.5569999 0.052000001 17
4.7410002 -2.688 0.141 18
5.026 -2.836 0.23999999 18
5.3260002 -2.993 0.35100001 19
4.0749998 -2.3080001 -0.097999997 18
4.2789998 -2.408 -0.025 18
4.493 -2.5139999 0.054000001 17
4.7449999 -2.641 0.14300001 17
5.0349998 -2.79 0.243 18
5.322 -2.9360001 0.35299999 18
4.0900002 -2.2739999 -0.094999999 18
4.29 -2.3699999 -0.022 15
4.4990001 -2.471 0.057 17
4.7470002 -2.5929999 0.146 17
5.027 -2.733 0.245 17
5.3309999 -2.8859999 0.35600001 19
4.0840001 -2.2279999 -0.092 21
4.289 -2.325 -0.018999999 16
4.4959998 -2.4230001 0.059999999 17
4.7459998 -2.5439999 0.149 17
5.0310001 -2.684 0.248 17
5.3340001 -2.8329999 0.35800001 19
4.0869999 -2.187 -0.088 19
4.2919998 -2.2820001 -0.016000001 17
4.5 -2.378 0.063000001 19
4.7509999 -2.497 0.152 18
5.0339999 -2.6329999 0.25099999 17
5.3299999 -2.776 0.361 17
4.099 -2.151 -0.085000001 21
4.2940001 -2.2390001 -0.012 19
4.5089998 -2.3369999 0.066 15
4.7529998 -2.451 0.155 15
5.039 -2.586 0.25400001 15
5.3369999 -2.727 0.36399999 15
4.1020002 -2.1110001 -0.082000002 18
4.2979999 -2.197 -0.0089999996 16
4.5100002 -2.2920001 0.07 17
4.7600002 -2.405 0.15800001 15
5.0409999 -2.5350001 0.257 15
5.3390002 -2.6730001 0.366 15
4.1129999 -2.0739999 -0.078000002 20
4.3000002 -2.154 -0.0060000001 16
4.5170002 -2.2490001 0.072999999 16
4.7639999 -2.359 0.161 16
5.0489998 -2.4879999 0.25999999 16
5.3429999 -2.6210001 0.36899999 15
4.1220002 -2.036 -0.075000003 21
4.2940001 -2.1070001 -0.0020000001 18
4.5219998 -2.2060001 0.075999998 16
4.7649999 -2.3110001 0.164 15
5.0510001 -2.438 0.26300001 15
5.3429999 -2.5669999 0.37200001 15
4.119 -1.992 -0.071000002 19
4.302 -2.0669999 0 17
4.526 -2.1619999 0.079999998 16
4.7690001 -2.2650001 0.167 16
5.0500002 -2.3859999 0.266 16
5.3379998 -2.5109999 0.37400001 15
4.1339998 -1.957 -0.068000004 21
4.3200002 -2.0320001 0.0040000002 15
4.527 -2.1159999 0.082999997 16
4.7820001 -2.223 0.171 15
5.0500002 -2.336 0.26899999 16
5.348 -2.4630001 0.37799999 16
4.138 -1.9170001 -0.064000003 20
4.316 -1.9859999 0.0070000002 18
4.5359998 -2.075 0.086000003 15
4.7779999 -2.174 0.17399999 17
5.059 -2.29 0.27200001 16
5.3530002 -2.4119999 0.38100001 16
4.1440001 -1.878 -0.061000001 19
4.3239999 -1.947 0.0099999998 15
4.533 -2.029 0.090000004 17
4.7870002 -2.1300001 0.177 16
5.0549998 -2.2379999 0.27500001 16
5.3579998 -2.3610001 0.384 17
4.151 -1.839 -0.057 20
4.3299999 -1.906 0.014 17
4.5339999 -1.983 0.093000002 19
4.7909999 -2.085 0.18099999 15
5.0650001 -2.1919999 0.278 16
5.3639998 -2.3110001 0.38699999 16
4.1560001 -1.8 -0.054000001 20
4.3369999 -1.8660001 0.017000001 18
4.5469999 -1.9450001 0.096000001 17
4.7919998 -2.0380001 0.184 16
5.0650001 -2.1429999 0.28099999 17
5.323 -2.2420001 0.38699999 12
0 6.1440001 0 0
0 0 0 0
0 0 0 0
0 0 0 255
4.1620002 -1.762 -0.050999999 19
4.3470001 -1.8279999 0.021 16
4.546 -1.9 0.1 19
4.7940001 -1.992 0.18700001 17
5.0689998 -2.095 0.285 16
5.3530002 -2.2019999 0.39199999 11
4.1700001 -1.724 -0.046999998 20
4.3470001 -1.785 0.024 17
4.5500002 -1.857 0.103 18
4.7989998 -1.947 0.19 16
5.073 -2.0469999 0.28799999 17
5.3730001 -2.158 0.39700001 16
4.1700001 -1.683 -0.043000001 20
4.349 -1.743 0.028000001 17
4.5549998 -1.814 0.106 17
4.7969999 -1.9 0.19400001 17
5.0700002 -1.997 0.29100001 15
5.3779998 -2.108 0.40000001 16
4.177 -1.6440001 -0.039999999 21
4.3569999 -1.704 0.030999999 19
4.559 -1.772 0.11 17
4.802 -1.855 0.197 15
5.0830002 -1.9529999 0.294 16
5.3769999 -2.0569999 0.403 15
4.1820002 -1.6059999 -0.037 20
4.3660002 -1.665 0.034000002 17
4.5679998 -1.7309999 0.113 16
4.8109999 -1.813 0.2 14
5.0929999 -1.909 0.29800001 16
5.382 -2.007 0.40599999 18
4.191 -1.569 -0.033 22
4.369 -1.624 0.037999999 18
4.5739999 -1.6900001 0.116 18
4.8070002 -1.765 0.20299999 14
5.085 -1.857 0.30000001 16
5.3800001 -1.955 0.40799999 16
4.1869998 -1.527 -0.029999999 17
4.369 -1.582 0.041000001 15
4.5760002 -1.647 0.119 15
4.8260002 -1.726 0.207 14
5.0900002 -1.811 0.30399999 16
5.3850002 -1.906 0.412 16
4.1939998 -1.489 -0.027000001 20
4.3829999 -1.545 0.044 16
4.586 -1.607 0.123 16
4.8200002 -1.679 0.20999999 13
5.0960002 -1.765 0.30700001 14
5.3850002 -1.8559999 0.414 17
4.2020001 -1.452 -0.024 20
4.3889999 -1.506 0.046999998 13
4.5929999 -1.566 0.126 14
4.8270001 -1.636 0.213 12
5.099 -1.7180001 0.31 13
5.3930001 -1.808 0.417 16
4.2069998 -1.414 -0.021 18
4.388 -1.464 0.050000001 13
4.5900002 -1.522 0.12899999 14
4.8270001 -1.59 0.21600001 14
5.1020002 -1.6720001 0.31299999 13
5.3899999 -1.757 0.41999999 14
4.2059999 -1.374 -0.017000001 16
4.3899999 -1.424 0.052999999 13
4.5929999 -1.48 0.132 14
4.8280001 -1.546 0.21799999 13
5.1079998 -1.626 0.31600001 15
5.3899999 -1.707 0.42199999 15
4.2080002 -1.335 -0.014 16
4.3870001 -1.381 0.056000002 15
4.5970001 -1.438 0.13500001 13
4.8319998 -1.502 0.221 15
5.1059999 -1.5779999 0.31799999 13
5.3979998 -1.66 0.426 15
4.2069998 -1.295 -0.012 15
4.401 -1.345 0.059 12
4.5999999 -1.397 0.13699999 12
4.836 -1.459 0.22400001 12
5.1079998 -1.5319999 0.32100001 14
5.3969998 -1.61 0.428 15
4.2199998 -1.26 -0.0089999996 16
4.395 -1.303 0.061999999 14
4.605 -1.355 0.14 15
4.8379998 -1.415 0.227 13
5.112 -1.4859999 0.32300001 14
5.3959999 -1.5599999 0.43000001 15
4.217 -1.219 -0.0060000001 15
4.4000001 -1.263 0.064999998 14
4.612 -1.3150001 0.14300001 16
4.8340001 -1.37 0.229 13
5.1129999 -1.4400001 0.32600001 14
5.3889999 -1.5089999 0.43200001 16
4.2179999 -1.181 -0.003 17
4.4070001 -1.225 0.067000002 16
4.6079998 -1.272 0.145 17
4.8369999 -1.326 0.23199999 14
5.1230001 -1.396 0.329 16
5.4000001 -1.4630001 0.435 15
0 6.1440001 0 0
0 0 0 0
0 0 0 0
0 0 0 255
4.2280002 -1.145 -0.001 17
4.4089999 -1.1849999 0.07 16
4.6090002 -1.23 0.148 17
4.8460002 -1.285 0.234 14
5.125 -1.351 0.331 15
5.4000001 -1.415 0.43700001 15
4.2329998 -1.108 0.001 17
4.4159999 -1.147 0.071999997 16
4.6160002 -1.191 0.15000001 15
4.8439999 -1.2410001 0.236 15
5.1240001 -1.3049999 0.333 15
5.3990002 -1.3660001 0.43900001 17
4.2309999 -1.069 0.003 17
4.4099998 -1.1059999 0.074000001 15
4.619 -1.15 0.153 18
4.842 -1.197 0.23800001 15
5.1230001 -1.2589999 0.33500001 15
5.4029999 -1.3200001 0.44100001 16
4.2350001 -1.0319999 0.0049999999 17
4.4180002 -1.068 0.077 17
4.625 -1.1109999 0.155 16
4.8520002 -1.1569999 0.241 16
5.1199999 -1.2130001 0.33700001 15
5.3930001 -1.27 0.442 19
4.2379999 -0.995 0.0080000004 21
4.4200001 -1.03 0.079000004 17
4.625 -1.0700001 0.15700001 16
4.8499999 -1.114 0.243 15
5.1269999 -1.17 0.33899999 16
5.3990002 -1.225 0.44499999 16
4.2420001 -0.95899999 0.0099999998 17
4.4219999 -0.991 0.081 16
4.6279998 -1.03 0.15899999 17
4.842 -1.0700001 0.244 15
5.1149998 -1.123 0.34 16
5.3969998 -1.177 0.44600001 20
4.2379999 -0.92000002 0.012 17
4.4250002 -0.95300001 0.082999997 16
4.6300001 -0.99000001 0.161 16
4.849 -1.029 0.24600001 17
5.1240001 -1.08 0.34299999 17
5.3969998 -1.131 0.44800001 16
4.2459998 -0.88499999 0.014 18
4.4239998 -0.91399997 0.085000001 15
4.6279998 -0.949 0.163 19
4.8470001 -0.98699999 0.248 16
5.1259999 -1.036 0.345 16
5.4000001 -1.085 0.44999999 16
4.2459998 -0.84799999 0.015 17
4.434 -0.87800002 0.086999997 17
4.6290002 -0.90899998 0.164 19
4.8509998 -0.94599998 0.25 15
5.1290002 -0.99299997 0.34599999 17
5.4060001 -1.039 0.45199999 18
4.244 -0.81099999 0.017000001 18
4.4310002 -0.83899999 0.088 18
4.632 -0.87 0.16599999 17
4.8530002 -0.90499997 0.25099999 16
5.1290002 -0.949 0.34799999 16
5.4099998 -0.99400002 0.45300001 17
4.2519999 -0.77600002 0.018999999 18
4.434 -0.80199999 0.090000004 18
4.6329999 -0.83099997 0.167 18
4.8530002 -0.86400002 0.25299999 15
5.1290002 -0.90600002 0.34900001 16
5.3990002 -0.94700003 0.454 15
4.2509999 -0.73900002 0.02 19
4.4349999 -0.764 0.090999998 17
4.6290002 -0.79000002 0.169 15
4.8579998 -0.82300001 0.25400001 16
5.1170001 -0.86000001 0.34900001 16
5.395 -0.89999998 0.45500001 18
4.25 -0.70200002 0.021 17
4.4359999 -0.72600001 0.092 18
4.6360002 -0.75199997 0.17 18
4.8460002 -0.77999997 0.255 16
5.1209998 -0.81800002 0.35100001 16
5.4029999 -0.85600001 0.456 15
4.2480001 -0.66500002 0.023 17
4.434 -0.68800002 0.093999997 17
4.632 -0.71200001 0.171 14
4.8499999 -0.73900002 0.25600001 15
5.1269999 -0.77499998 0.352 16
5.3990002 -0.80900002 0.45699999 15
4.2509999 -0.63 0.024 17
4.441 -0.65100002 0.094999999 19
4.632 -0.67299998 0.17200001 16
4.8509998 -0.699 0.257 14
5.1209998 -0.73100001 0.35299999 15
5.401 -0.76499999 0.458 15
4.2509999 -0.59399998 0.025 16
4.4330001 -0.61400002 0.096000001 16
4.6360002 -0.63499999 0.17299999 16
4.849 -0.65799999 0.25799999 15
5.125 -0.69 0.354 15
5.4050002 -0.72100002 0.45899999 15
0 6.1440001 0 0
0 0 0 0
0 0 0 0
0 0 0 255
4.244 -0.55800003 0.026000001 18
4.4310002 -0.57700002 0.097000003 15
4.6339998 -0.597 0.17399999 16
4.8460002 -0.61799997 0.259 14
5.1259999 -0.648 0.35499999 14
5.3969998 -0.676 0.45899999 17
4.2449999 -0.523 0.027000001 18
4.434 -0.54000002 0.097999997 16
4.6339998 -0.55900002 0.175 16
4.8429999 -0.57800001 0.259 15
5.125 -0.60500002 0.35600001 16
5.3899999 -0.63099998 0.46000001 15
4.244 -0.48699999 0.028000001 17
4.4330001 -0.50300002 0.097999997 16
4.6300001 -0.51999998 0.176 16
4.8499999 -0.53799999 0.25999999 14
5.118 -0.56300002 0.35600001 16
5.3940001 -0.58700001 0.46000001 16
4.2480001 -0.45300001 0.028000001 17
4.4320002 -0.46599999 0.098999999 17
4.6230001 -0.48100001 0.176 15
4.8449998 -0.498 0.26100001 15
5.1170001 -0.51999998 0.35600001 14
5.3889999 -0.542 0.46000001 16
4.2459998 -0.417 0.028999999 19
4.4250002 -0.42899999 0.1 15
4.625 -0.44299999 0.177 14
4.8460002 -0.45899999 0.26100001 15
5.1129999 -0.47799999 0.35600001 15
5.3850002 -0.498 0.461 15
4.2420001 -0.382 0.029999999 17
4.4229999 -0.39300001 0.1 16
4.6230001 -0.405 0.177 14
4.842 -0.419 0.26199999 15
5.118 -0.43799999 0.35699999 15
5.3870001 -0.45500001 0.461 15
4.244 -0.34799999 0.029999999 17
4.421 -0.35699999 0.1 15
4.6269999 -0.36899999 0.178 15
4.842 -0.38100001 0.26199999 14
5.1149998 -0.396 0.35699999 15
5.3769999 -0.41100001 0.461 19
4.243 -0.31400001 0.029999999 17
4.421 -0.322 0.101 16
4.6230001 -0.331 0.178 17
4.829 -0.34099999 0.26199999 16
5.1040001 -0.35499999 0.35699999 17
5.3740001 -0.368 0.461 17
4.2350001 -0.27900001 0.030999999 17
4.4219999 -0.28600001 0.101 18
4.6209998 -0.294 0.178 16
4.8280001 -0.30199999 0.26199999 15
5.1069999 -0.31400001 0.35699999 17
5.3800001 -0.32600001 0.46200001 16
4.2340002 -0.245 0.030999999 18
4.4219999 -0.25099999 0.101 18
4.6160002 -0.257 0.178 16
4.8249998 -0.264 0.26199999 14
5.0960002 -0.273 0.35699999 17
5.3629999 -0.28200001 0.46000001 15
4.237 -0.211 0.030999999 16
4.4159999 -0.21600001 0.101 17
4.6069999 -0.22 0.178 15
4.8210001 -0.226 0.26199999 15
5.0939999 -0.233 0.35699999 17
5.3610001 -0.23999999 0.46000001 18
4.23 -0.178 0.030999999 17
4.4120002 -0.18099999 0.102 16
4.612 -0.185 0.178 16
4.8260002 -0.18799999 0.26199999 18
5.0840001 -0.193 0.35600001 16
5.3639998 -0.199 0.461 16
4.2309999 -0.145 0.030999999 16
4.4180002 -0.147 0.102 17
4.6079998 -0.148 0.178 15
4.823 -0.15099999 0.26199999 17
5.0869999 -0.154 0.35699999 15
5.3699999 -0.15700001 0.461 21
4.224 -0.111 0.032000002 21
4.402 -0.112 0.101 17
4.6079998 -0.112 0.178 18
4.8049998 -0.112 0.26100001 15
5.0840001 -0.114 0.35600001 17
5.3569999 -0.115 0.46000001 37
4.2249999 -0.078000002 0.030999999 23
4.4050002 -0.078000002 0.101 17
4.5929999 -0.077 0.178 17
4.8099999 -0.075999998 0.26199999 18
5.0749998 -0.075000003 0.35600001 16
5.3460002 -0.075000003 0.45899999 37
4.2160001 -0.046 0.030999999 20
4.401 -0.044 0.102 18
4.6020002 -0.041999999 0.178 18
4.8060002 -0.039000001 0.26100001 17
5.0749998 -0.037 0.35600001 20
5.3379998 -0.034000002 0.458 34
0 6.1440001 0 0
0 0 0 0
0 0 0 0
0 0 0 255
4.2140002 -0.013 0.030999999 24
4.402 -0.0099999998 0.101 17
4.5970001 -0.0060000001 0.178 19
4.8010001 -0.0020000001 0.26100001 16
5.0669999 0.001 0.35499999 34
5.3369999 0.0060000001 0.458 34
4.204 0.017999999 0.030999999 20
4.388 0.022 0.101 18
4.5890002 0.027000001 0.178 17
4.796 0.033 0.26100001 16
5.0570002 0.039000001 0.35499999 35
5.322 0.045000002 0.45699999 21
4.2049999 0.048999999 0.030999999 22
4.3850002 0.055 0.101 19
4.5869999 0.061000001 0.177 18
4.7930002 0.068000004 0.26100001 17
5.053 0.075999998 0.354 35
5.3260002 0.085000001 0.45699999 17
4.198 0.081 0.030999999 20
4.381 0.088 0.101 16
4.5840001 0.096000001 0.177 19
4.7880001 0.104 0.25999999 16
5.0549998 0.114 0.354 35
5.3239999 0.124 0.45699999 16
4.2010002 0.112 0.030999999 19
4.3709998 0.12 0.1 16
4.5739999 0.12899999 0.177 18
4.7849998 0.139 0.25999999 16
5.0570002 0.15099999 0.354 24
5.3210001 0.164 0.45699999 16
4.1989999 0.14300001 0.030999999 21
4.381 0.153 0.1 19
4.573 0.163 0.177 17
4.7839999 0.175 0.25999999 15
5.0479999 0.18799999 0.354 16
5.322 0.20200001 0.45699999 15
4.197 0.17399999 0.030999999 18
4.3740001 0.184 0.1 18
4.5739999 0.197 0.177 18
4.7820001 0.20900001 0.25999999 17
5.0419998 0.22499999 0.35299999 15
5.3169999 0.241 0.45699999 16
4.1950002 0.205 0.029999999 18
4.3660002 0.21600001 0.1 17
4.5679998 0.23 0.176 17
4.777 0.244 0.25999999 17
5.0419998 0.26100001 0.35299999 17
5.3200002 0.28 0.45699999 15
4.191 0.235 0.029999999 20
4.3740001 0.248 0.1 18
4.5710001 0.26300001 0.177 18
4.7719998 0.278 0.259 18
5.0349998 0.29699999 0.35299999 16
5.3070002 0.317 0.456 17
4.1869998 0.26499999 0.029999999 19
4.369 0.28 0.1 17
4.566 0.29499999 0.176 17
4.77 0.31200001 0.259 18
5.033 0.333 0.35299999 16
5.303 0.35499999 0.456 16
4.1789999 0.294 0.029999999 18
4.3600001 0.31 0.1 17
4.559 0.32800001 0.176 18
4.7670002 0.34599999 0.259 17
5.0320001 0.36899999 0.35299999 16
5.302 0.39300001 0.456 17
4.177 0.324 0.029999999 18
4.3610001 0.34099999 0.1 19
4.559 0.359 0.176 18
4.763 0.37900001 0.259 16
5.026 0.40400001 0.35299999 15
5.3049998 0.43000001 0.45699999 15
4.1799998 0.354 0.029999999 19
4.355 0.37099999 0.1 18
4.5630002 0.39199999 0.176 20
4.7610002 0.412 0.259 15
5.0289998 0.43900001 0.354 15
5.3039999 0.46700001 0.45699999 15
4.1750002 0.382 0.029999999 18
4.3579998 0.40200001 0.1 19
4.5609999 0.42300001 0.177 21
4.7610002 0.44499999 0.25999999 17
5.0289998 0.47400001 0.354 15
5.296 0.50300002 0.45699999 15
4.1799998 0.412 0.029999999 21
4.3540001 0.43099999 0.1 18
4.553 0.454 0.177 18
4.75 0.47600001 0.25999999 16
5.0209999 0.50700003 0.354 17
5.2919998 0.53899997 0.45699999 15
4.1719999 0.43900001 0.030999999 19
4.3540001 0.461 0.1 19
4.5570002 0.48500001 0.177 19
4.757 0.50999999 0.25999999 16
5.0229998 0.54100001 0.35499999 16
5.3010001 0.57499999 0.45899999 16
0 6.1440001 0 0
0 0 0 0
0 0 0 0
0 0 0 255
4.1690001 0.46700001 0.030999999 20
4.3540001 0.49000001 0.101 19
4.5469999 0.51499999 0.177 18
4.757 0.54100001 0.26100001 16
5.0219998 0.57499999 0.35499999 16
5.2969999 0.61000001 0.45899999 16
4.1729999 0.49599999 0.030999999 20
4.3540001 0.51999998 0.101 19
4.5560002 0.546 0.178 19
4.757 0.57300001 0.26199999 18
5.0209999 0.60799998 0.35600001 17
5.2969999 0.64600003 0.46000001 16
4.1700001 0.523 0.032000002 19
4.349 0.54799998 0.102 18
4.552 0.57599998 0.17900001 19
4.7519999 0.60399997 0.26199999 18
5.0240002 0.64200002 0.35699999 16
5.2930002 0.68000001 0.461 17
4.165 0.55000001 0.032000002 19
4.3460002 0.57599998 0.102 18
4.5450001 0.60500002 0.17900001 17
4.7490001 0.63499999 0.26300001 16
5.0250001 0.67500001 0.35800001 16
5.2940001 0.71499997 0.46200001 18
4.1680002 0.57700002 0.033 22
4.3499999 0.60500002 0.103 21
4.5479999 0.63499999 0.18000001 19
4.7509999 0.66600001 0.264 18
5.0229998 0.70700002 0.359 17
5.3010001 0.75 0.46399999 17
4.1620002 0.60299999 0.034000002 20
4.348 0.63300002 0.104 19
4.5430002 0.66299999 0.18099999 17
4.7529998 0.69700003 0.26499999 17
5.0250001 0.73900002 0.36000001 16
5.3080001 0.78500003 0.46599999 16
4.165 0.63 0.034000002 19
4.3530002 0.66100001 0.105 19
4.5479999 0.69300002 0.182 19
4.7529998 0.72600001 0.266 17
5.0250001 0.77100003 0.36199999 16
5.302 0.81699997 0.46700001 14
4.1680002 0.65700001 0.035 19
4.3470001 0.68699998 0.106 18
4.552 0.72100002 0.184 20
4.7550001 0.75599998 0.26800001 16
5.0289998 0.80299997 0.36399999 17
5.3039999 0.85000002 0.46900001 16
4.1680002 0.68300003 0.037 23
4.3509998 0.71399999 0.107 19
4.5539999 0.75 0.185 20
4.7540002 0.78600001 0.26899999 17
5.0300002 0.83399999 0.366 17
5.3080001 0.884 0.47099999 17
4.1659999 0.708 0.037999999 22
4.3569999 0.74199998 0.109 19
4.5479999 0.77600002 0.186 18
4.7610002 0.815 0.271 16
5.0370002 0.866 0.368 16
5.3119998 0.917 0.47400001 15
4.1659999 0.73299998 0.039000001 23
4.3509998 0.76700002 0.11 18
4.5580001 0.80500001 0.18799999 20
4.7639999 0.84399998 0.27399999 16
5.0430002 0.89600003 0.37099999 15
5.3130002 0.94800001 0.47600001 17
4.1719999 0.75800002 0.041000001 21
4.3509998 0.792 0.112 19
4.5609999 0.83200002 0.19 19
4.7690001 0.87300003 0.27599999 16
5.0489998 0.92699999 0.373 16
5.3239999 0.98100001 0.47999999 16
4.1719999 0.78200001 0.041999999 22
4.3569999 0.81800002 0.114 22
4.5580001 0.85799998 0.192 17
4.7719998 0.89999998 0.278 16
5.0479999 0.95599997 0.37599999 16
5.3319998 1.013 0.48300001 15
4.1729999 0.80599999 0.044 23
4.3569999 0.84299999 0.116 20
4.5580001 0.884 0.19499999 18
4.777 0.92799997 0.28099999 19
5.0539999 0.98500001 0.37900001 17
5.336 1.044 0.486 15
4.184 0.83099997 0.046 20
4.3579998 0.86699998 0.118 20
4.5630002 0.91000003 0.197 18
4.7880001 0.95700002 0.28400001 17
5.0570002 1.0140001 0.382 16
5.3410001 1.074 0.49000001 16
4.1849999 0.85399997 0.048 19
4.3699999 0.89300001 0.121 18
4.566 0.935 0.2 19
4.789 0.98299998 0.287 19
5.0619998 1.0420001 0.38499999 16
5.3569999 1.1059999 0.495 14
0 6.1440001 0 0
0 0 0 0
0 0 0 0
0 0 0 255
4.191 0.87699997 0.050999999 22
4.3730001 0.917 0.123 18
4.5799999 0.96200001 0.20299999 17
4.8039999 1.012 0.28999999 16
5.0640001 1.069 0.38800001 18
5.3590002 1.135 0.498 17
4.191 0.89899999 0.052999999 19
4.3860002 0.94199997 0.126 19
4.5840001 0.98699999 0.206 18
4.8080001 1.0369999 0.294 18
5.0809999 1.099 0.39300001 16
5.368 1.165 0.50300002 17
4.1960001 0.921 0.056000002 18
4.3870001 0.96399999 0.12899999 18
4.5939999 1.012 0.20999999 21
4.8189998 1.064 0.29800001 17
5.1059999 1.13 0.39899999 15
5.3800001 1.1950001 0.50800002 17
4.2059999 0.94400001 0.059 19
4.3920002 0.98699999 0.132 19
4.599 1.036 0.213 18
4.8239999 1.089 0.30199999 16
5.1100001 1.156 0.403 16
5.4000001 1.226 0.514 14
4.2080002 0.96499997 0.061999999 19
4.401 1.01 0.13600001 18
4.6129999 1.061 0.21699999 18
4.8340001 1.114 0.30599999 17
5.1230001 1.184 0.40799999 15
5.414 1.255 0.51899999 14
4.2129998 0.986 0.064999998 19
4.4039998 1.0319999 0.139 15
4.6199999 1.084 0.221 16
4.8400002 1.138 0.31 17
5.1300001 1.209 0.41299999 16
5.4310002 1.284 0.52600002 15
4.2259998 1.008 0.068000004 20
4.4169998 1.0549999 0.14300001 18
4.6290002 1.107 0.22499999 19
4.8600001 1.165 0.31600001 16
5.1459999 1.2359999 0.41800001 16
5.4460001 1.312 0.53200001 14
4.2319999 1.027 0.071999997 18
4.4260001 1.076 0.147 19
4.6370001 1.1289999 0.23 17
4.8660002 1.187 0.31999999 15
5.164 1.263 0.42399999 16
5.4619999 1.34 0.53899997 14
4.2449999 1.049 0.075999998 18
4.4289999 1.095 0.15099999 16
4.6490002 1.151 0.234 17
4.882 1.212 0.32600001 16
5.1719999 1.2869999 0.43000001 17
5.473 1.3660001 0.54500002 14
4.256 1.068 0.079999998 18
4.4460001 1.117 0.156 16
4.6539998 1.171 0.23899999 19
4.9029999 1.237 0.33199999 16
5.1890001 1.312 0.43599999 16
5.4949999 1.3940001 0.55299997 15
4.257 1.085 0.083999999 17
4.4510002 1.136 0.16 17
4.664 1.192 0.244 19
4.921 1.26 0.338 17
5.217 1.339 0.44400001 15
5.513 1.42 0.56 14
4.2659998 1.103 0.088 16
4.461 1.155 0.16500001 15
4.6760001 1.212 0.249 17
4.928 1.28 0.34299999 18
5.2199998 1.359 0.449 15
5.5279999 1.444 0.56699997 15
4.2810001 1.122 0.093000002 19
4.48 1.175 0.17 16
4.6900001 1.232 0.255 17
4.9450002 1.302 0.34900001 17
5.2379999 1.382 0.456 15
5.5489998 1.469 0.57499999 15
4.29 1.138 0.097000003 17
4.4949999 1.194 0.175 17
4.7049999 1.252 0.25999999 16
4.96 1.322 0.35600001 17
5.2639999 1.4069999 0.46399999 14
5.572 1.494 0.58399999 15
4.309 1.1569999 0.102 18
4.4970002 1.209 0.18000001 17
4.7160001 1.27 0.266 17
4.9710002 1.341 0.36199999 18
5.27 1.425 0.47099999 15
5.592 1.517 0.59200001 15
4.316 1.1720001 0.107 19
4.5120001 1.226 0.185 17
4.7329998 1.288 0.27200001 16
4.993 1.362 0.36899999 17
5.29 1.447 0.479 15
5.6059999 1.5369999 0.60000002 15
0 6.1440001 0 0
0 0 0 0
0 0 0 0
0 0 0 255
4.3280001 1.187 0.112 19
4.5310001 1.244 0.191 18
4.7490001 1.306 0.278 17
5.013 1.381 0.37599999 16
5.3130002 1.4680001 0.48699999 16
5.6290002 1.559 0.60900003 16
4.3429999 1.202 0.117 17
4.539 1.258 0.197 16
4.7649999 1.323 0.285 16
5.0359998 1.401 0.384 15
5.3369999 1.488 0.495 16
5.6550002 1.582 0.61900002 14
4.3579998 1.217 0.123 18
4.559 1.274 0.20299999 15
4.7839999 1.339 0.29100001 17
5.0650001 1.421 0.39199999 15
5.3540001 1.506 0.50300002 15
5.6799998 1.603 0.62900001 16
4.3699999 1.23 0.12800001 16
4.572 1.288 0.20900001 16
4.8039999 1.3559999 0.29800001 18
5.073 1.4349999 0.39899999 15
5.375 1.524 0.51200002 15
5.704 1.622 0.63800001 17
4.3850002 1.242 0.134 17
4.592 1.303 0.215 15
4.8210001 1.37 0.30500001 16
5.0910001 1.45 0.40599999 16
5.4039998 1.543 0.52100003 16
5.7329998 1.642 0.648 15
4.401 1.255 0.139 19
4.6020002 1.314 0.221 15
4.835 1.383 0.31200001 19
5.1209998 1.467 0.41499999 15
5.4200001 1.557 0.52899998 16
5.757 1.659 0.65799999 16
4.408 1.2640001 0.145 18
4.6240001 1.327 0.228 16
4.8559999 1.396 0.31900001 17
5.1300001 1.478 0.42199999 15
5.4450002 1.573 0.53899997 15
5.777 1.674 0.66799998 16
4.4169998 1.272 0.15000001 17
4.6269999 1.335 0.234 17
4.8670001 1.406 0.32600001 17
5.1490002 1.4910001 0.43000001 15
5.4640002 1.587 0.54699999 15
5.803 1.6900001 0.67799997 16
4.4349999 1.283 0.156 15
4.6500001 1.347 0.23999999 15
4.8940001 1.42 0.33399999 17
5.177 1.505 0.43900001 16
5.494 1.601 0.55699998 16
5.8379998 1.707 0.69 16
4.4569998 1.293 0.163 14
4.6789999 1.359 0.24699999 15
4.9190001 1.432 0.34099999 15
5.191 1.5140001 0.44600001 16
5.5180001 1.614 0.56599998 16
5.8559999 1.7180001 0.699 15
4.4629998 1.298 0.168 15
4.6859999 1.365 0.25400001 16
4.9299998 1.438 0.34799999 15
5.2140002 1.525 0.45500001 16
5.539 1.624 0.57499999 16
5.881 1.73 0.70999998 14
4.4809999 1.3049999 0.17399999 16
4.7080002 1.374 0.25999999 15
4.9530001 1.448 0.35600001 16
5.2309999 1.5319999 0.463 16
5.5599999 1.633 0.58499998 16
5.921 1.745 0.722 15
4.4980001 1.312 0.18000001 15
4.7189999 1.378 0.26699999 16
4.9710002 1.454 0.36300001 16
5.2579999 1.5420001 0.47099999 16
5.5869999 1.643 0.59399998 16
5.9400001 1.753 0.73199999 15
4.513 1.316 0.186 15
4.7360001 1.383 0.273 16
4.9959998 1.462 0.37099999 16
5.2750001 1.5470001 0.479 16
5.612 1.651 0.60299999 17
5.9720001 1.763 0.74299997 15
4.5219998 1.318 0.192 15
4.757 1.3890001 0.28 16
5.0079999 1.465 0.37799999 15
5.2989998 1.554 0.48800001 16
5.6409998 1.659 0.61299998 17
6.006 1.772 0.75400001 15
4.54 1.322 0.198 16
4.7750001 1.392 0.287 18
5.0289998 1.469 0.38499999 15
5.3189998 1.558 0.49599999 15
5.6620002 1.663 0.62199998 16
6.0320001 1.778 0.764 16
0 6.1440001 0 0
0 0 0 0
0 0 0 0
0 0 0 255
4.5640001 1.326 0.204 15
4.7849998 1.392 0.29300001 19
5.053 1.473 0.39300001 15
5.342 1.561 0.50400001 15
5.684 1.666 0.63099998 17
6.0349998 1.775 0.77200001 15
4.5770001 1.326 0.20999999 15
4.8049998 1.3940001 0.29899999 18
5.0749998 1.476 0.40000001 15
5.3610001 1.563 0.51200002 16
5.704 1.668 0.63999999 16
6.0830002 1.785 0.78399998 14
4.5869999 1.324 0.215 17
4.822 1.3940001 0.30500001 17
5.0799999 1.472 0.40599999 14
5.381 1.563 0.51899999 16
5.7309999 1.67 0.64899999 16
6.1059999 1.785 0.79400003 16
4.605 1.324 0.221 15
4.8379998 1.393 0.31099999 17
5.112 1.475 0.41299999 15
5.4029999 1.563 0.52700001 16
5.7540002 1.67 0.65700001 17
6.138 1.7869999 0.80400002 15
4.6160002 1.3200001 0.226 15
4.8559999 1.391 0.317 18
5.1230001 1.471 0.419 15
5.4250002 1.561 0.53399998 16
5.7740002 1.6670001 0.66500002 16
6.1630001 1.786 0.81400001 14
4.638 1.319 0.23100001 15
4.868 1.387 0.32300001 16
5.1360002 1.466 0.426 15
5.4439998 1.558 0.542 16
5.7919998 1.663 0.67299998 16
0 0 0 0
4.6490002 1.313 0.236 15
4.8870001 1.383 0.329 16
5.1539998 1.461 0.43200001 14
5.4580002 1.552 0.54799998 15
5.8189998 1.66 0.68099999 16
6.2140002 1.779 0.833 14
4.6550002 1.3049999 0.241 16
4.902 1.377 0.33399999 15
5.171 1.456 0.43799999 14
5.4749999 1.546 0.55500001 16
5.8379998 1.653 0.68900001 16
6.2420001 1.774 0.84200001 14
4.671 1.299 0.24600001 15
4.9200001 1.3710001 0.33899999 15
5.1869998 1.448 0.44400001 14
5.5029998 1.541 0.56199998 16
5.8460002 1.642 0.69499999 15
0 0 0 0
4.6849999 1.2920001 0.25 15
4.9250002 1.36 0.34400001 16
5.1999998 1.439 0.449 15
5.5089998 1.529 0.56699997 16
5.8769999 1.636 0.70300001 17
6.2789998 1.7539999 0.85699999 13
4.6989999 1.283 0.255 15
4.9460001 1.353 0.34900001 16
5.2160001 1.4299999 0.454 15
5.52 1.517 0.57300001 16
5.8959999 1.626 0.70999998 16
6.2979999 1.743 0.86400002 14
4.6989999 1.27 0.25799999 16
4.961 1.3430001 0.354 17
5.23 1.419 0.45899999 15
5.539 1.507 0.57800001 16
5.9190001 1.615 0.71700001 16
6.3179998 1.73 0.87099999 14
4.7090001 1.258 0.26199999 16
4.9780002 1.332 0.35800001 17
5.2470002 1.408 0.46399999 14
5.5599999 1.495 0.58399999 16
5.9299998 1.6 0.722 17
0 0 0 0
4.7210002 1.2460001 0.266 16
4.9860001 1.318 0.36199999 16
5.2579999 1.393 0.46799999 15
5.572 1.4809999 0.58899999 16
5.947 1.585 0.727 17
6.3569999 1.701 0.884 15
4.7329998 1.233 0.26899999 15
4.987 1.302 0.36500001 18
5.2659998 1.377 0.472 15
5.5799999 1.464 0.59299999 17
5.9590001 1.568 0.73199999 17
6.3769999 1.684 0.88999999 15
4.7389998 1.2180001 0.27200001 17
5.0100002 1.29 0.36899999 17
5.2779999 1.362 0.47600001 15
5.5960002 1.448 0.597 17
5.9749999 1.551 0.73699999 17
6.382 1.663 0.89399999 14
0 6.1440001 0 0
0 0 0 0
0 0 0 0
0 0 0 255
4.7470002 1.202 0.27500001 17
5.007 1.27 0.37200001 16
5.2810001 1.3430001 0.479 14
5.6009998 1.428 0.60000002 17
5.993 1.533 0.74199998 17
0 0 0 0
4.7509999 1.184 0.27700001 16
5.0149999 1.252 0.37400001 15
5.2969999 1.326 0.48199999 15
5.6160002 1.409 0.60399997 16
5.9970002 1.51 0.745 17
6.415 1.6210001 0.90399998 15
4.7649999 1.168 0.28 15
5.0310001 1.2359999 0.377 17
5.302 1.306 0.48500001 15
5.6259999 1.3890001 0.60699999 16
6.0029998 1.487 0.74800003 17
6.4039998 1.592 0.90499997 16
4.7690001 1.149 0.28200001 18
5.0370002 1.216 0.38 15
5.3080001 1.285 0.48699999 16
5.632 1.3660001 0.60900003 17
6.013 1.464 0.75099999 18
0 0 0 0
4.777 1.13 0.28400001 16
5.0409999 1.1950001 0.38100001 17
5.3179998 1.263 0.48899999 15
5.6370001 1.3430001 0.61199999 16
6.0180001 1.438 0.75300002 17
6.434 1.543 0.912 18
4.783 1.11 0.285 16
5.0430002 1.173 0.38299999 16
5.322 1.24 0.491 16
5.6440001 1.319 0.61299998 15
6.02 1.411 0.75400001 17
6.4369998 1.5140001 0.91299999 18
4.783 1.0880001 0.287 16
5.0560002 1.152 0.38499999 17
5.329 1.217 0.493 15
5.651 1.294 0.61500001 16
6.033 1.386 0.75700003 17
6.441 1.485 0.91500002 17
4.7930002 1.067 0.28799999 18
5.0489998 1.126 0.38499999 15
5.3299999 1.191 0.493 18
5.6570001 1.268 0.616 16
6.033 1.3559999 0.75700003 17
6.447 1.455 0.91600001 17
4.7979999 1.045 0.289 16
5.0580001 1.103 0.38600001 16
5.335 1.166 0.49399999 16
5.6589999 1.24 0.61699998 16
6.04 1.3279999 0.75800002 17
6.4569998 1.424 0.91799998 18
4.7989998 1.02 0.28999999 16
5.0669999 1.079 0.38699999 16
5.3390002 1.14 0.495 15
5.6589999 1.211 0.61699998 16
6.0380001 1.296 0.75800002 17
6.461 1.392 0.91799998 19
4.8000002 0.99599999 0.28999999 18
5.0640001 1.052 0.38699999 16
5.3400002 1.112 0.495 16
5.6690001 1.184 0.61799997 15
6.0479999 1.266 0.759 18
6.4569998 1.357 0.917 18
4.8070002 0.972 0.28999999 17
5.073 1.027 0.38800001 16
5.3379998 1.084 0.495 15
5.6620002 1.152 0.61699998 16
6.0359998 1.232 0.75700003 17
6.4520001 1.321 0.91600001 19
4.8060002 0.94599998 0.28999999 17
5.0689998 0.99900001 0.38699999 16
5.3410001 1.0549999 0.495 15
5.664 1.1210001 0.61699998 16
6.0549998 1.202 0.75800002 18
6.461 1.2869999 0.91600001 19
4.8060002 0.92000002 0.28999999 18
5.0689998 0.97100002 0.38699999 16
5.3379998 1.025 0.49399999 15
5.664 1.09 0.616 16
6.0430002 1.166 0.75599998 18
6.4530001 1.249 0.91399997 18
4.802 0.89200002 0.289 18
5.0710001 0.94300002 0.38600001 17
5.3369999 0.995 0.493 15
5.6570001 1.056 0.61400002 17
6.0450001 1.132 0.755 17
6.4499998 1.212 0.912 17
4.8049998 0.86500001 0.28799999 17
5.0679998 0.91399997 0.38499999 16
5.3439999 0.96499997 0.493 15
5.6570001 1.024 0.61299998 16
6.0450001 1.097 0.75400001 17
6.4580002 1.175 0.912 19
0 6.1440001 0 0
0 0 0 0
0 0 0 0
0 0 0 255
4.8099999 0.838 0.28799999 17
5.0669999 0.884 0.384 17
5.336 0.93199998 0.491 17
5.6599998 0.991 0.61199999 17
6.046 1.061 0.75199997 17
6.4359999 1.132 0.90700001 19
4.803 0.80800003 0.287 17
5.0580001 0.852 0.382 17
5.3319998 0.89899999 0.48899999 16
5.6500001 0.95499998 0.61000001 17
6.0409999 1.024 0.75 18
6.4419999 1.094 0.90499997 18
4.8039999 0.77899998 0.285 17
5.0640001 0.82200003 0.382 17
5.3369999 0.86799997 0.48800001 17
5.652 0.921 0.60799998 17
6.033 0.98500001 0.74699998 18
6.434 1.053 0.90200001 19
4.7969999 0.74900001 0.28400001 18
5.0560002 0.79000002 0.38 18
5.3340001 0.83399999 0.486 17
5.6440001 0.884 0.60500002 17
6.0240002 0.94599998 0.74400002 17
6.4250002 1.012 0.89899999 19
4.802 0.72000003 0.28299999 16
5.0570002 0.759 0.37799999 18
5.3299999 0.801 0.484 16
5.6389999 0.84899998 0.60299999 17
6.02 0.90799999 0.741 18
6.4250002 0.97100002 0.89600003 19
4.796 0.68900001 0.28099999 18
5.0539999 0.72600001 0.377 16
5.3260002 0.76700002 0.48199999 17
5.6339998 0.81199998 0.60000002 19
6.0079999 0.86699998 0.73799998 18
6.4159999 0.92900002 0.89200002 18
4.7950001 0.65799999 0.28 17
5.0489998 0.69400001 0.37400001 17
5.3239999 0.73199999 0.47999999 17
5.632 0.77600002 0.59799999 16
6.0079999 0.829 0.73500001 18
6.4180002 0.88700002 0.88999999 19
4.7989998 0.62800002 0.278 18
5.0419998 0.66100001 0.37200001 18
5.3169999 0.69700003 0.477 16
5.6269999 0.73799998 0.59500003 17
5.9990001 0.78899997 0.73100001 18
6.4060001 0.84399998 0.88499999 19
4.789 0.59600002 0.27599999 17
5.026 0.62599999 0.36899999 17
5.3200002 0.66299999 0.47499999 18
5.619 0.70099998 0.59200001 17
5.9959998 0.74900001 0.72899997 18
6.3920002 0.79900002 0.88 19
4.7930002 0.565 0.27399999 17
5.0359998 0.59399998 0.368 17
5.3080001 0.62599999 0.472 19
5.6149998 0.66299999 0.58899999 17
5.9759998 0.70599997 0.72299999 18
6.3899999 0.75599998 0.87699997 18
4.7870002 0.53299999 0.27200001 16
5.0310001 0.56 0.366 16
5.3049998 0.58999997 0.47 16
5.6110001 0.625 0.58700001 17
5.9780002 0.66600001 0.72100002 17
6.3800001 0.71200001 0.87300003 18
4.7870002 0.50099999 0.27000001 16
5.0229998 0.52499998 0.36300001 16
5.2969999 0.55400002 0.46700001 18
5.605 0.58600003 0.583 17
5.974 0.625 0.71799999 18
6.3660002 0.667 0.86799997 18
4.7880001 0.46900001 0.26899999 17
5.0219998 0.491 0.361 17
5.2919998 0.51700002 0.46399999 16
5.598 0.54699999 0.57999998 17
5.9650002 0.583 0.71399999 18
6.355 0.62099999 0.86299998 17
4.7779999 0.435 0.266 18
5.0209999 0.45699999 0.359 15
5.289 0.48100001 0.46200001 16
5.5970001 0.50800002 0.57700002 16
5.96 0.54100001 0.70999998 17
6.3429999 0.57599998 0.85799998 17
4.783 0.403 0.26499999 19
5.0050001 0.421 0.35600001 15
5.2820001 0.44400001 0.45899999 16
5.579 0.46799999 0.57300001 17
5.9439998 0.498 0.70599997 17
6.3270001 0.52999997 0.85299999 18
4.7729998 0.36899999 0.26199999 17
5.0110002 0.38699999 0.354 15
5.2750001 0.40599999 0.456 18
5.573 0.42899999 0.56999999 17
5.941 0.456 0.70300001 19
6.3260002 0.48500001 0.85000002 17
0 6.1440001 0 0
0 0 0 0
0 0 0 0
0 0 0 255
4.7740002 0.336 0.25999999 17
4.9980001 0.35100001 0.35100001 16
5.2709999 0.36899999 0.45300001 17
5.5669999 0.389 0.56699997 17
5.9310002 0.41299999 0.699 19
6.323 0.44 0.84600002 18
4.77 0.30199999 0.25799999 16
4.994 0.315 0.34799999 17
5.277 0.33199999 0.45100001 17
5.5700002 0.34900001 0.565 17
5.921 0.37 0.69499999 20
6.3140001 0.39399999 0.84200001 18
4.7670002 0.26899999 0.25600001 17
4.9899998 0.28 0.34599999 17
5.2659998 0.294 0.44800001 16
5.5689998 0.31 0.56199998 17
5.928 0.32800001 0.69300002 18
6.302 0.34799999 0.83700001 18
4.7610002 0.234 0.25400001 17
4.9850001 0.244 0.34400001 16
5.2579999 0.25600001 0.44499999 17
5.5549998 0.26899999 0.55800003 18
5.9099998 0.28400001 0.68800002 19
6.2940001 0.301 0.833 18
4.7550001 0.2 0.252 15
4.9860001 0.208 0.34200001 16
5.257 0.21699999 0.44299999 17
5.5450001 0.228 0.55500001 19
5.9050002 0.241 0.685 18
6.2839999 0.25400001 0.829 18
4.7579999 0.16599999 0.25 18
4.9860001 0.17200001 0.34 14
5.2509999 0.17900001 0.44 16
5.546 0.18700001 0.55299997 16
5.9029999 0.197 0.68199998 18
6.2800002 0.208 0.82599998 18
4.7529998 0.131 0.248 17
4.9829998 0.13500001 0.338 17
5.2470002 0.14 0.43799999 17
5.5450001 0.146 0.551 16
5.8930001 0.153 0.67799997 18
6.2750001 0.161 0.82300001 19
4.7509999 0.096000001 0.24600001 18
4.9899998 0.098999999 0.336 21
5.2410002 0.102 0.43599999 18
5.5409999 0.105 0.54799998 17
5.8920002 0.109 0.676 18
6.2639999 0.113 0.81900001 18
4.7540002 0.061000001 0.245 17
4.9910002 0.061999999 0.33500001 23
5.2449999 0.063000001 0.43399999 31
5.533 0.064000003 0.54500002 17
5.8829999 0.064999998 0.67299998 19
6.2449999 0.066 0.81400001 20
4.7449999 0.026000001 0.242 16
4.9860001 0.025 0.333 25
5.2459998 0.024 0.43200001 35
5.526 0.022 0.542 18
5.8850002 0.02 0.671 18
6.2550001 0.017999999 0.81300002 18
4.7449999 -0.0080000004 0.241 17
4.9679999 -0.012 0.33000001 15
5.2340002 -0.015 0.42899999 36
5.527 -0.018999999 0.54100001 17
5.8800001 -0.023 0.66799998 18
6.2470002 -0.028000001 0.81 20
4.7459998 -0.044 0.23999999 17
4.973 -0.048999999 0.329 15
5.2340002 -0.054000001 0.428 39
5.5250001 -0.059999999 0.53899997 32
5.8759999 -0.068000004 0.66600001 18
6.2410002 -0.075999998 0.80699998 19
4.744 -0.079000004 0.23800001 15
4.9780002 -0.086000003 0.32699999 14
5.2519999 -0.093999997 0.428 25
5.5310001 -0.102 0.53799999 36
5.8779998 -0.113 0.66500002 17
6.2329998 -0.124 0.80400002 19
4.75 -0.115 0.237 18
4.973 -0.124 0.32600001 14
5.2350001 -0.134 0.42500001 16
5.527 -0.145 0.53600001 35
5.8699999 -0.15800001 0.662 18
6.2379999 -0.17200001 0.80299997 18
4.7509999 -0.15099999 0.236 17
4.9660001 -0.161 0.324 15
5.23 -0.17399999 0.42300001 16
5.5279999 -0.18700001 0.53399998 38
5.8629999 -0.20299999 0.66000003 31
6.2410002 -0.221 0.80199999 17
4.7470002 -0.18700001 0.235 17
4.9720001 -0.199 0.32300001 14
5.2379999 -0.214 0.42300001 14
5.5180001 -0.229 0.53200001 20
5.8730001 -0.249 0.66000003 37
6.2329998 -0.26899999 0.79900002 17
0 6.1440001 0 0
0 0 0 0
0 0 0 0
0 0 0 255
4.7399998 -0.223 0.233 15
4.954 -0.237 0.32100001 15
5.23 -0.25400001 0.421 15
5.5219998 -0.273 0.53200001 15
5.8720002 -0.29499999 0.65799999 38
6.2259998 -0.31799999 0.79699999 20
4.7490001 -0.25999999 0.233 16
4.96 -0.27599999 0.32100001 16
5.2340002 -0.29499999 0.41999999 15
5.527 -0.31600001 0.53100002 17
5.8759999 -0.34099999 0.65799999 37
6.2210002 -0.36700001 0.796 38
4.743 -0.29699999 0.23199999 16
4.9790001 -0.315 0.32100001 13
5.2329998 -0.336 0.41999999 17
5.5289998 -0.36000001 0.53100002 14
5.8759999 -0.38800001 0.65700001 18
6.2360001 -0.41800001 0.79699999 43
4.756 -0.33500001 0.23199999 16
4.9710002 -0.354 0.31999999 17
5.2389998 -0.37799999 0.41999999 15
5.5349998 -0.40400001 0.53100002 15
5.8860002 -0.435 0.65799999 16
6.237 -0.46799999 0.796 44
4.7509999 -0.37200001 0.23100001 16
4.9840002 -0.39399999 0.31999999 13
5.2410002 -0.419 0.419 14
5.5289998 -0.447 0.52899998 16
5.8779998 -0.48100001 0.65600002 17
6.2459998 -0.51800001 0.79699999 29
4.75 -0.40900001 0.23100001 16
4.9790001 -0.433 0.31999999 14
5.2470002 -0.461 0.419 13
5.5300002 -0.491 0.52899998 17
5.882 -0.52899998 0.65600002 18
6.256 -0.56999999 0.79799998 17
4.744 -0.44600001 0.23 14
4.9899998 -0.47299999 0.31999999 13
5.2490001 -0.50300002 0.419 15
5.539 -0.537 0.52999997 16
5.8850002 -0.57599998 0.65700001 17
6.2600002 -0.62 0.79900002 16
4.7519999 -0.484 0.23 14
4.993 -0.514 0.31999999 13
5.2550001 -0.546 0.41999999 13
5.5450001 -0.58200002 0.53100002 17
5.9000001 -0.62599999 0.65899998 18
6.2690001 -0.67299998 0.80000001 17
4.7540002 -0.52200001 0.23100001 16
4.993 -0.55400002 0.31999999 12
5.2620001 -0.58899999 0.421 15
5.552 -0.62800002 0.53200001 15
5.9109998 -0.676 0.66000003 16
6.2729998 -0.72500002 0.801 18
4.7649999 -0.56199998 0.23100001 16
4.9959998 -0.59399998 0.32100001 15
5.27 -0.63300002 0.421 14
5.5689998 -0.67500001 0.53399998 15
5.921 -0.72500002 0.662 16
6.2880001 -0.778 0.80400002 18
4.7579999 -0.60000002 0.23100001 15
5 -0.63599998 0.32100001 14
5.2690001 -0.676 0.42199999 13
5.5700002 -0.72100002 0.53399998 16
5.927 -0.77499998 0.66399997 16
6.303 -0.833 0.80699998 17
4.7719998 -0.63999999 0.23199999 16
5.0089998 -0.67799997 0.32300001 13
5.277 -0.72000003 0.42300001 16
5.5819998 -0.76899999 0.53600001 15
5.9400001 -0.82599998 0.66600001 16
6.309 -0.88599998 0.80900002 17
4.7740002 -0.67900002 0.233 15
5.0170002 -0.71899998 0.324 13
5.29 -0.76499999 0.42500001 14
5.5900002 -0.815 0.53799999 14
5.9520001 -0.87599999 0.66900003 16
6.3280001 -0.94099998 0.81300002 16
4.7810001 -0.71899998 0.234 17
5.026 -0.76099998 0.32499999 14
5.2950001 -0.80900002 0.42699999 15
5.5960002 -0.86299998 0.54000002 14
5.9590001 -0.92699999 0.671 17
6.3400002 -0.99599999 0.81599998 17
4.7859998 -0.759 0.235 15
5.0359998 -0.80500001 0.32699999 15
5.2989998 -0.85399997 0.428 14
5.6059999 -0.91100001 0.54299998 15
5.9710002 -0.97899997 0.67400002 16
6.355 -1.052 0.81999999 17
4.789 -0.79900002 0.236 15
5.0409999 -0.847 0.32800001 14
5.3070002 -0.89899999 0.43000001 14
5.6149998 -0.95999998 0.54500002 15
5.9829998 -1.0319999 0.67699999 16
6.3740001 -1.109 0.82499999 18
0 6.1440001 0 0
0 0 0 0
0 0 0 0
0 0 0 255
4.7940001 -0.83899999 0.23800001 16
5.0479999 -0.89099997 0.33000001 14
5.3239999 -0.94700003 0.433 16
5.6300001 -1.01 0.54900002 15
5.9899998 -1.084 0.68000001 16
6.3839998 -1.166 0.82800001 17
4.803 -0.88099998 0.23899999 15
5.0570002 -0.935 0.33199999 15
5.3200002 -0.991 0.435 16
5.6350002 -1.058 0.551 15
6.0050001 -1.138 0.68400002 15
6.3969998 -1.223 0.833 17
4.8060002 -0.92199999 0.241 17
5.0749998 -0.98100001 0.33500001 14
5.3390002 -1.04 0.43799999 15
5.6560001 -1.1109999 0.55500001 15
6.026 -1.194 0.68900001 17
6.4229999 -1.284 0.83899999 17
4.8239999 -0.96700001 0.244 15
5.085 -1.026 0.338 14
5.3509998 -1.0880001 0.44100001 15
5.6760001 -1.163 0.56 15
6.046 -1.249 0.69400001 17
6.4359999 -1.342 0.84399998 17
4.8309999 -1.0089999 0.24600001 16
5.0960002 -1.071 0.34099999 14
5.3670001 -1.137 0.44499999 16
5.691 -1.215 0.56400001 16
6.0650001 -1.306 0.69999999 16
6.4580002 -1.403 0.85100001 17
4.848 -1.053 0.249 14
5.1079998 -1.118 0.34400001 14
5.382 -1.186 0.449 14
5.698 -1.266 0.56800002 16
6.0780001 -1.3609999 0.70499998 18
6.487 -1.466 0.85900003 17
4.8559999 -1.096 0.25099999 16
5.1199999 -1.164 0.347 13
5.3870001 -1.234 0.45199999 15
5.7189999 -1.3200001 0.57300001 15
6.1030002 -1.42 0.71100003 17
6.5139999 -1.53 0.86699998 18
4.8649998 -1.14 0.25400001 17
5.138 -1.212 0.35100001 14
5.4159999 -1.2869999 0.458 14
5.7319999 -1.373 0.57800001 15
6.1230001 -1.479 0.71700001 17
6.533 -1.592 0.87300003 17
4.8769999 -1.1849999 0.257 15
5.152 -1.26 0.35499999 14
5.4260001 -1.337 0.46200001 16
5.7509999 -1.428 0.583 15
6.1490002 -1.539 0.72500002 18
6.5549998 -1.655 0.88099998 16
4.8860002 -1.229 0.25999999 15
5.1589999 -1.307 0.35800001 14
5.4400001 -1.388 0.46599999 14
5.777 -1.485 0.58999997 16
6.1669998 -1.598 0.73100001 17
6.5879998 -1.722 0.88999999 17
4.908 -1.278 0.264 14
5.1799998 -1.358 0.36300001 14
5.4619999 -1.442 0.472 14
5.7870002 -1.539 0.59500003 15
6.2010002 -1.6619999 0.74000001 17
6.6149998 -1.788 0.89899999 17
4.9250002 -1.325 0.26800001 14
5.198 -1.408 0.36700001 15
5.4819999 -1.4960001 0.477 14
5.8270001 -1.602 0.60299999 16
6.224 -1.725 0.74699998 18
6.6570001 -1.86 0.91100001 18
4.941 -1.373 0.27200001 13
5.2129998 -1.459 0.37200001 13
5.506 -1.551 0.48300001 15
5.849 -1.66 0.61000001 16
6.25 -1.788 0.75599998 16
6.6919999 -1.931 0.921 19
4.9569998 -1.421 0.27599999 13
5.2280002 -1.5089999 0.37599999 13
5.526 -1.6059999 0.48899999 15
5.8730001 -1.72 0.61699998 16
6.2729998 -1.852 0.764 16
6.7210002 -2.0009999 0.93199998 18
4.9770002 -1.471 0.28 13
5.2420001 -1.5599999 0.38100001 13
5.5419998 -1.66 0.495 15
5.902 -1.781 0.625 17
6.3080001 -1.919 0.77399999 17
6.7420001 -2.0680001 0.94099998 15
4.9860001 -1.518 0.28400001 12
5.257 -1.6109999 0.38600001 12
5.5539999 -1.714 0.5 13
5.9250002 -1.8430001 0.63300002 14
6.3530002 -1.9910001 0.78500003 15
6.7820001 -2.1429999 0.95300001 15
0 6.1440001 0 0
0 0 0 0
0 0 0 0
0 0 0 255
5.0089998 -1.5700001 0.289 13
5.2820001 -1.666 0.39199999 14
5.5830002 -1.774 0.50800002 19
5.9429998 -1.903 0.63999999 14
6.3860002 -2.0599999 0.79500002 18
6.8169999 -2.217 0.96499997 17
5.0300002 -1.622 0.294 16
5.302 -1.721 0.398 16
5.6009998 -1.83 0.514 17
5.9759998 -1.967 0.64899999 16
6.4169998 -2.1289999 0.80599999 17
6.862 -2.296 0.97899997 17
5.053 -1.675 0.30000001 14
5.329 -1.778 0.405 15
5.6329999 -1.892 0.52200001 17
6.0089998 -2.033 0.65799999 16
6.454 -2.201 0.81699997 18
6.9130001 -2.3770001 0.99299997 17
5.066 -1.725 0.30399999 13
5.348 -1.8329999 0.41100001 15
5.6560001 -1.952 0.52999997 17
6.0240002 -2.0940001 0.66600001 17
6.4889998 -2.273 0.82800001 18
6.9559999 -2.457 1.007 18
5.0929999 -1.781 0.31 14
5.3709998 -1.89 0.417 15
5.677 -2.0109999 0.537 16
6.0650001 -2.165 0.67699999 16
6.5170002 -2.3440001 0.83899999 17
7.0040002 -2.54 1.022 17
5.1129999 -1.835 0.31600001 14
5.3969998 -1.949 0.42399999 16
5.6999998 -2.072 0.54500002 16
6.1030002 -2.2349999 0.68699998 16
6.5539999 -2.418 0.85100001 18
7.0510001 -2.6229999 1.038 18
5.1290002 -1.887 0.32100001 14
5.4250002 -2.0090001 0.43200001 16
5.723 -2.1340001 0.55199999 17
6.131 -2.303 0.69700003 16
6.586 -2.493 0.86199999 17
7.1059999 -2.7119999 1.054 18
5.1550002 -1.9450001 0.32800001 14
5.4429998 -2.066 0.43799999 16
5.7839999 -2.211 0.56400001 14
6.1700001 -2.375 0.708 16
6.6329999 -2.5739999 0.87599999 16
7.1490002 -2.7969999 1.0700001 17
5.1729999 -2 0.33399999 16
5.473 -2.1289999 0.44600001 16
5.8150001 -2.277 0.57300001 15
6.198 -2.4449999 0.71799999 16
6.684 -2.6570001 0.89099997 17
7.2020001 -2.8870001 1.087 17
5.198 -2.0580001 0.34 15
5.4879999 -2.1860001 0.45300001 16
5.8429999 -2.3440001 0.58200002 15
6.2329998 -2.5179999 0.73000002 16
6.73 -2.74 0.90499997 17
7.2480001 -2.9749999 1.103 16
5.2160001 -2.1140001 0.34599999 14
5.553 -2.2650001 0.46399999 4
5.8639998 -2.4070001 0.59100002 15
6.2680001 -2.592 0.741 17
6.7729998 -2.822 0.92000002 18
7.3099999 -3.0710001 1.122 17
5.2449999 -2.175 0.35299999 14
5.5669999 -2.323 0.47099999 9
5.9000001 -2.4779999 0.60100001 15
6.309 -2.6689999 0.75300002 17
6.822 -2.9089999 0.935 18
7.3649998 -3.1670001 1.14 15
5.2680001 -2.234 0.36000001 16
5.5700002 -2.3770001 0.477 7
5.9260001 -2.546 0.61000001 15
6.3429999 -2.7449999 0.76499999 16
6.8720002 -2.997 0.95099998 17
7.4250002 -3.2650001 1.16 14
5.2909999 -2.2939999 0.36700001 15
5.6259999 -2.4549999 0.48800001 7
5.9650002 -2.6199999 0.62099999 16
6.3860002 -2.825 0.778 16
6.914 -3.0829999 0.96499997 18
7.4850001 -3.3640001 1.179 14
5.3109999 -2.3529999 0.37400001 15
5.645 -2.517 0.495 14
5.9949999 -2.691 0.63099998 16
6.427 -2.905 0.79100001 15
6.973 -3.177 0.98199999 16
7.5570002 -3.471 1.201 14
5.3369999 -2.415 0.38100001 15
5.6729999 -2.5829999 0.50400001 14
6.0320001 -2.7650001 0.64200002 14
6.4629998 -2.983 0.80299997 17
7.026 -3.2679999 0.99900001 16
7.6269999 -3.5780001 1.223 12
0 6.1440001 0 0
0 0 0 0
0 0 0 0
0 0 0 255
5.3590002 -2.4760001 0.38800001 14
5.6880002 -2.6440001 0.51099998 13
6.0689998 -2.8399999 0.653 16
6.513 -3.069 0.81699997 16
7.0749998 -3.3599999 1.015 17
7.698 -3.6860001 1.245 12
5.3850002 -2.539 0.39500001 14
5.71 -2.7090001 0.51899999 13
6.1040001 -2.915 0.66399997 15
6.5510001 -3.151 0.82999998 16
7.1290002 -3.4560001 1.0319999 16
7.777 -3.8010001 1.2690001 12
5.408 -2.602 0.40200001 15
5.744 -2.78 0.52899998 14
6.1350002 -2.9890001 0.67400002 16
6.6009998 -3.2390001 0.84500003 19
7.184 -3.552 1.05 16
7.8460002 -3.9119999 1.291 15
5.4349999 -2.6670001 0.41 17
5.7750001 -2.8510001 0.53799999 18
6.1719999 -3.0669999 0.68599999 18
6.6420002 -3.3239999 0.85799998 17
7.2420001 -3.652 1.069 16
7.9250002 -4.0300002 1.316 15
5.46 -2.7309999 0.417 18
5.8060002 -2.921 0.54699999 17
6.2080002 -3.145 0.69700003 16
6.6880002 -3.4119999 0.87199998 16
7.302 -3.7539999 1.087 16
