# .PCD v0.7 - Point Cloud Data file format
VERSION 0.7
FIELDS x y z intensity
SIZE 4 4 4 4
TYPE F F F F
COUNT 1 1 1 1
WIDTH 1587
HEIGHT 1
VIEWPOINT 0 0 0 1 0 0 0
POINTS 1587
DATA ascii
2.687 -1.992 -0.62800002 19
2.7809999 -2.049 -0.59200001 14
2.8829999 -2.1129999 -0.55599999 15
2.99 -2.181 -0.51700002 16
3.112 -2.26 -0.477 17
3.233 -2.3399999 -0.433 19
2.688 -1.982 -0.62800002 17
2.78 -2.0380001 -0.59299999 15
2.8840001 -2.102 -0.55699998 16
2.9860001 -2.1659999 -0.51700002 14
3.109 -2.2460001 -0.477 18
3.2290001 -2.3239999 -0.433 21
2.6849999 -1.969 -0.62800002 17
2.779 -2.0250001 -0.59299999 15
2.8829999 -2.089 -0.55699998 15
2.98 -2.1489999 -0.51599997 14
3.1099999 -2.233 -0.47799999 19
3.224 -2.306 -0.433 16
2.684 -1.957 -0.62699997 18
2.779 -2.013 -0.59299999 15
2.8840001 -2.0769999 -0.55699998 17
2.9890001 -2.141 -0.51800001 18
3.1040001 -2.2130001 -0.477 18
3.2260001 -2.2909999 -0.433 20
2.6830001 -1.943 -0.62699997 20
2.777 -1.998 -0.59200001 16
2.8859999 -2.0639999 -0.55699998 17
2.9879999 -2.125 -0.51800001 17
3.105 -2.198 -0.477 17
3.2260001 -2.2750001 -0.433 18
2.6819999 -1.929 -0.62599999 19
2.786 -1.99 -0.59399998 16
2.882 -2.0450001 -0.55599999 17
2.9879999 -2.109 -0.51700002 16
3.1029999 -2.1789999 -0.47600001 16
3.223 -2.2539999 -0.433 18
2.6819999 -1.915 -0.62599999 20
2.783 -1.973 -0.59200001 16
2.882 -2.029 -0.55500001 18
2.98 -2.0869999 -0.51499999 16
3.099 -2.1589999 -0.47499999 15
3.2190001 -2.233 -0.43200001 19
2.681 -1.898 -0.62400001 18
2.779 -1.954 -0.59100002 15
2.882 -2.0120001 -0.55500001 18
2.9860001 -2.073 -0.51599997 17
3.0999999 -2.141 -0.47499999 16
3.217 -2.211 -0.43099999 20
2.681 -1.882 -0.62300003 18
2.7820001 -1.939 -0.58999997 16
2.8800001 -1.993 -0.55400002 19
2.983 -2.052 -0.514 16
3.1040001 -2.1240001 -0.47499999 16
3.22 -2.1930001 -0.43099999 21
0 6.1440001 0 0
0 0 0 0
0 0 0 0
0 0 0 255
2.6819999 -1.865 -0.62199998 18
2.783 -1.921 -0.58899999 17
2.8800001 -1.975 -0.55199999 16
2.984 -2.033 -0.51300001 16
3.1029999 -2.1029999 -0.47400001 16
3.2260001 -2.175 -0.43099999 21
2.681 -1.847 -0.62099999 22
2.7850001 -1.904 -0.588 18
2.882 -1.956 -0.551 19
2.9879999 -2.0150001 -0.51300001 17
3.1129999 -2.0880001 -0.47400001 18
3.224 -2.151 -0.42899999 21
2.6830001 -1.829 -0.61900002 20
2.7809999 -1.881 -0.58600003 18
2.882 -1.936 -0.55000001 18
2.99 -1.9960001 -0.51200002 18
3.1110001 -2.0650001 -0.472 17
3.2279999 -2.131 -0.428 21
2.688 -1.814 -0.61900002 20
2.7880001 -1.8660001 -0.58499998 18
2.8870001 -1.918 -0.54900002 18
2.9920001 -1.975 -0.50999999 18
3.1099999 -2.0420001 -0.47 17
3.227 -2.1070001 -0.42699999 21
2.6900001 -1.795 -0.61699998 24
2.7909999 -1.847 -0.58399999 19
2.8859999 -1.897 -0.54699999 18
2.9949999 -1.955 -0.509 21
3.1099999 -2.0179999 -0.46900001 15
3.23 -2.085 -0.426 21
2.6919999 -1.776 -0.61500001 22
2.796 -1.83 -0.583 17
2.891 -1.878 -0.54500002 17
2.993 -1.931 -0.50599998 17
3.112 -1.995 -0.46700001 16
3.2260001 -2.0569999 -0.42300001 23
2.694 -1.755 -0.61299998 24
2.7939999 -1.806 -0.57999998 17
2.892 -1.8559999 -0.54299998 18
2.9960001 -1.909 -0.505 18
3.118 -1.975 -0.46599999 19
3.2290001 -2.0339999 -0.42199999 23
2.694 -1.734 -0.61000001 25
2.7969999 -1.785 -0.57800001 18
2.8929999 -1.8329999 -0.54100001 20
2.9990001 -1.887 -0.50300002 19
3.1199999 -1.95 -0.46399999 19
3.2320001 -2.0090001 -0.41999999 21
2.6989999 -1.715 -0.60900003 20
2.8 -1.7640001 -0.57599998 18
2.8940001 -1.8099999 -0.53899997 22
3.0039999 -1.865 -0.50099999 19
3.1210001 -1.926 -0.46200001 18
3.2379999 -1.987 -0.41800001 19
2.7049999 -1.696 -0.60699999 24
2.8010001 -1.742 -0.57300001 18
2.898 -1.788 -0.537 17
3.0039999 -1.841 -0.49900001 15
3.1229999 -1.901 -0.45899999 16
3.2379999 -1.96 -0.41600001 19
2.7079999 -1.675 -0.60500002 22
2.8039999 -1.72 -0.57099998 18
2.9030001 -1.767 -0.53500003 18
3.0109999 -1.8200001 -0.49700001 16
3.1229999 -1.875 -0.45699999 17
3.2409999 -1.934 -0.414 19
2.7119999 -1.654 -0.602 25
2.8 -1.693 -0.56699997 18
2.9119999 -1.747 -0.53299999 18
3.0120001 -1.794 -0.49399999 17
3.1229999 -1.848 -0.454 16
3.253 -1.913 -0.41299999 19
2.7149999 -1.632 -0.60000002 27
2.8110001 -1.675 -0.56599998 20
2.9119999 -1.722 -0.52999997 17
3.0139999 -1.7690001 -0.49200001 16
3.1329999 -1.827 -0.45300001 15
3.2509999 -1.8839999 -0.40900001 20
2.7190001 -1.61 -0.597 25
2.8169999 -1.654 -0.56400001 20
2.918 -1.7 -0.528 18
3.0220001 -1.748 -0.49000001 16
3.1370001 -1.802 -0.44999999 17
3.256 -1.859 -0.40700001 19
2.724 -1.589 -0.59500003 26
2.816 -1.628 -0.56 18
2.9219999 -1.676 -0.52600002 18
3.0190001 -1.719 -0.486 19
3.1340001 -1.772 -0.44600001 16
3.2579999 -1.831 -0.40400001 20
2.7279999 -1.566 -0.59200001 27
2.8269999 -1.609 -0.55900002 22
2.918 -1.647 -0.52100003 17
3.0250001 -1.6950001 -0.484 17
3.1440001 -1.75 -0.44400001 18
3.2650001 -1.806 -0.40200001 19
0 6.1440001 0 0
0 0 0 0
0 0 0 0
0 0 0 255
2.7360001 -1.545 -0.58999997 33
2.835 -1.587 -0.55699998 21
2.9289999 -1.627 -0.51999998 17
3.0309999 -1.671 -0.48100001 19
3.148 -1.724 -0.442 19
3.2639999 -1.776 -0.39899999 19
2.7409999 -1.523 -0.58700001 28
2.8340001 -1.561 -0.55299997 20
2.9330001 -1.603 -0.51700002 23
3.029 -1.643 -0.477 18
3.154 -1.699 -0.43900001 19
3.273 -1.751 -0.39700001 24
2.7409999 -1.497 -0.583 25
2.8410001 -1.539 -0.551 26
2.9389999 -1.579 -0.514 21
3.039 -1.62 -0.47499999 18
3.1559999 -1.671 -0.43599999 17
3.276 -1.723 -0.39399999 22
2.744 -1.473 -0.57999998 31
2.842 -1.512 -0.54699999 25
2.9419999 -1.553 -0.51099998 20
3.0469999 -1.596 -0.47299999 20
3.1570001 -1.643 -0.433 20
3.2820001 -1.697 -0.391 24
2.7509999 -1.451 -0.57800001 30
2.8399999 -1.485 -0.54299998 24
2.9489999 -1.53 -0.509 21
3.046 -1.568 -0.46900001 19
3.1619999 -1.6160001 -0.43000001 18
3.2809999 -1.666 -0.38699999 23
2.7550001 -1.427 -0.574 29
2.8510001 -1.464 -0.54100001 24
2.9489999 -1.502 -0.505 20
3.0550001 -1.544 -0.46700001 22
3.1630001 -1.587 -0.426 21
3.2869999 -1.6390001 -0.384 21
2.76 -1.403 -0.57099998 32
2.8599999 -1.442 -0.53899997 27
2.957 -1.479 -0.50199997 21
3.0550001 -1.516 -0.463 18
3.1689999 -1.561 -0.42300001 18
3.29 -1.61 -0.38100001 20
2.7650001 -1.38 -0.56800002 35
2.8540001 -1.4119999 -0.53399998 23
2.9579999 -1.451 -0.49900001 21
3.062 -1.4910001 -0.46000001 19
3.177 -1.536 -0.421 18
3.296 -1.5829999 -0.37799999 24
2.7639999 -1.353 -0.56400001 66
2.858 -1.387 -0.52999997 36
2.9690001 -1.429 -0.49700001 24
3.0650001 -1.464 -0.45699999 20
3.178 -1.507 -0.417 21
3.299 -1.554 -0.375 23
2.7620001 -1.326 -0.56 30
2.868 -1.365 -0.528 36
2.9619999 -1.398 -0.491 30
3.066 -1.436 -0.454 22
3.1849999 -1.4809999 -0.41499999 23
3.3050001 -1.526 -0.37200001 25
2.7720001 -1.304 -0.55800003 28
2.872 -1.34 -0.52499998 23
2.9649999 -1.372 -0.48800001 26
3.0610001 -1.405 -0.449 26
3.184 -1.451 -0.41100001 25
3.3069999 -1.497 -0.36899999 27
2.767 -1.275 -0.55199999 31
2.8740001 -1.313 -0.52100003 21
2.967 -1.345 -0.484 20
3.0680001 -1.38 -0.44600001 23
3.187 -1.4220001 -0.40700001 36
3.3099999 -1.4680001 -0.36500001 26
2.78 -1.255 -0.551 30
2.8800001 -1.289 -0.51800001 22
2.974 -1.3200001 -0.48199999 26
3.073 -1.353 -0.44299999 27
3.191 -1.395 -0.40400001 24
3.306 -1.436 -0.361 29
2.793 -1.234 -0.54900002 26
2.878 -1.261 -0.514 25
2.977 -1.293 -0.47799999 34
3.0799999 -1.3279999 -0.44 28
3.2 -1.369 -0.40200001 23
3.3150001 -1.409 -0.359 25
2.8010001 -1.211 -0.54699999 18
2.891 -1.239 -0.51200002 17
2.983 -1.268 -0.47499999 36
3.085 -1.301 -0.43700001 33
3.204 -1.341 -0.398 19
3.3269999 -1.383 -0.35699999 23
2.809 -1.188 -0.54400003 26
2.901 -1.216 -0.50999999 24
2.9920001 -1.243 -0.47299999 23
3.0910001 -1.275 -0.43399999 30
3.2130001 -1.3150001 -0.396 19
3.326 -1.352 -0.35299999 20
0 6.1440001 0 0
0 0 0 0
0 0 0 0
0 0 0 255
2.809 -1.161 -0.54000002 27
2.908 -1.191 -0.50700003 23
3 -1.219 -0.47099999 20
3.0999999 -1.25 -0.43200001 19
3.2160001 -1.2869999 -0.39300001 18
3.336 -1.326 -0.34999999 21
2.825 -1.141 -0.53899997 24
2.918 -1.168 -0.505 21
3.013 -1.196 -0.46900001 24
3.108 -1.224 -0.43000001 20
3.2249999 -1.261 -0.38999999 17
3.342 -1.2970001 -0.347 19
2.8210001 -1.112 -0.53500003 26
2.9170001 -1.14 -0.50099999 23
3.0139999 -1.168 -0.465 20
3.1170001 -1.198 -0.42699999 17
3.2309999 -1.233 -0.38699999 16
3.3540001 -1.271 -0.345 18
2.835 -1.091 -0.53399998 26
2.9219999 -1.115 -0.498 17
3.023 -1.1440001 -0.463 22
3.1259999 -1.173 -0.42500001 20
3.2309999 -1.204 -0.384 18
3.3499999 -1.239 -0.34200001 19
2.836 -1.0650001 -0.52999997 24
2.924 -1.089 -0.495 30
3.0209999 -1.115 -0.45899999 20
3.1289999 -1.146 -0.42199999 19
3.2390001 -1.177 -0.382 18
3.3559999 -1.211 -0.33899999 19
2.8399999 -1.04 -0.52700001 25
2.931 -1.064 -0.49200001 22
3.029 -1.09 -0.45699999 20
3.1289999 -1.117 -0.41800001 18
3.244 -1.15 -0.37900001 18
3.3599999 -1.183 -0.336 19
2.8410001 -1.0140001 -0.523 25
2.9300001 -1.0369999 -0.48899999 27
3.0320001 -1.064 -0.454 21
3.1389999 -1.092 -0.41600001 17
3.25 -1.122 -0.37599999 17
3.3640001 -1.153 -0.333 21
2.8540001 -0.99199998 -0.52200001 22
2.947 -1.015 -0.48800001 17
3.0380001 -1.0369999 -0.45100001 17
3.1440001 -1.0650001 -0.414 16
3.2539999 -1.094 -0.373 19
3.3659999 -1.124 -0.33000001 19
2.8540001 -0.96499997 -0.51899999 20
2.9489999 -0.98900002 -0.48500001 17
3.0450001 -1.012 -0.449 17
3.1440001 -1.0369999 -0.41 16
3.256 -1.066 -0.37 17
3.3770001 -1.098 -0.32800001 22
2.865 -0.94300002 -0.51700002 20
2.9549999 -0.96399999 -0.48300001 19
3.046 -0.98500001 -0.44600001 19
3.151 -1.01 -0.40799999 15
3.26 -1.038 -0.368 19
3.3800001 -1.068 -0.32499999 22
2.869 -0.91799998 -0.51499999 21
2.957 -0.93699998 -0.47999999 19
3.0539999 -0.95899999 -0.44400001 18
3.1570001 -0.98400003 -0.40599999 18
3.2620001 -1.0089999 -0.36500001 19
3.3829999 -1.039 -0.32300001 18
2.8740001 -0.89300001 -0.51200002 21
2.9549999 -0.91000003 -0.47600001 18
3.0539999 -0.93199998 -0.44100001 21
3.1570001 -0.95599997 -0.403 15
3.27 -0.98199999 -0.36300001 19
3.3840001 -1.01 -0.31999999 22
2.8729999 -0.866 -0.509 21
2.967 -0.88700002 -0.47499999 18
3.0580001 -0.90600002 -0.43799999 18
3.161 -0.92900002 -0.40000001 16
3.276 -0.95499998 -0.361 19
3.385 -0.98000002 -0.31799999 20
2.8789999 -0.84200001 -0.50700003 19
2.973 -0.86199999 -0.47299999 16
3.066 -0.88099998 -0.43700001 14
3.164 -0.90200001 -0.398 16
3.2750001 -0.926 -0.35800001 14
3.395 -0.95300001 -0.31600001 16
2.885 -0.81800002 -0.505 17
2.977 -0.83600003 -0.47099999 16
3.063 -0.85299999 -0.43399999 15
3.165 -0.87400001 -0.396 14
3.2839999 -0.89899999 -0.35600001 14
3.3929999 -0.92299998 -0.31299999 17
2.888 -0.792 -0.50300002 15
2.977 -0.80900002 -0.46799999 17
3.073 -0.82800001 -0.43200001 14
3.171 -0.847 -0.39399999 13
3.2839999 -0.87099999 -0.354 14
3.3959999 -0.89399999 -0.31099999 16
0 6.1440001 0 0
0 0 0 0
0 0 0 0
0 0 0 255
2.888 -0.76700002 -0.5 18
2.9749999 -0.78299999 -0.465 14
3.073 -0.801 -0.43000001 15
3.1719999 -0.81999999 -0.391 20
3.2880001 -0.84299999 -0.352 14
3.401 -0.866 -0.30899999 17
2.892 -0.74199998 -0.498 16
2.983 -0.75800002 -0.46399999 15
3.0780001 -0.77499998 -0.428 16
3.178 -0.79400003 -0.38999999 15
3.2780001 -0.81199998 -0.34900001 15
3.401 -0.83600003 -0.30700001 16
2.898 -0.71700001 -0.49700001 16
2.9849999 -0.73199999 -0.46200001 16
3.0810001 -0.74900001 -0.426 15
3.181 -0.76700002 -0.38800001 15
3.2920001 -0.787 -0.34799999 19
3.4030001 -0.80699998 -0.30500001 16
2.9030001 -0.69300002 -0.495 15
2.9890001 -0.70700002 -0.46000001 17
3.082 -0.722 -0.42399999 15
3.1819999 -0.73900002 -0.38600001 14
3.2909999 -0.759 -0.34599999 14
3.4059999 -0.77899998 -0.303 12
2.901 -0.667 -0.493 14
2.994 -0.68199998 -0.45899999 16
3.086 -0.69599998 -0.42199999 15
3.187 -0.713 -0.384 14
3.2920001 -0.73000002 -0.34400001 15
3.4100001 -0.75099999 -0.30199999 15
2.9059999 -0.64300001 -0.491 16
2.9920001 -0.65499997 -0.45699999 17
3.086 -0.67000002 -0.41999999 15
3.187 -0.68599999 -0.38299999 12
3.2969999 -0.70300001 -0.34299999 16
3.415 -0.72299999 -0.30000001 16
2.9059999 -0.61699998 -0.48899999 16
2.9990001 -0.63099998 -0.456 17
3.0929999 -0.64499998 -0.41999999 13
3.1900001 -0.65899998 -0.38100001 14
3.302 -0.676 -0.34099999 13
3.4159999 -0.69400001 -0.29899999 17
2.9089999 -0.59200001 -0.48800001 15
2.9949999 -0.60399997 -0.45300001 14
3.0940001 -0.61799997 -0.41800001 14
3.1930001 -0.63200003 -0.38 14
3.302 -0.64899999 -0.34 15
3.421 -0.667 -0.29800001 17
2.9089999 -0.56699997 -0.486 15
3.0009999 -0.579 -0.45300001 16
3.0929999 -0.59200001 -0.41600001 14
3.197 -0.60600001 -0.37900001 14
3.3039999 -0.62099999 -0.33899999 15
3.415 -0.63599998 -0.296 17
2.9130001 -0.54299998 -0.48500001 15
2.9979999 -0.55299997 -0.44999999 17
3.095 -0.56599998 -0.41499999 14
3.1930001 -0.57800001 -0.377 13
3.3080001 -0.59399998 -0.338 15
3.424 -0.61000001 -0.29499999 17
2.914 -0.51800001 -0.484 16
3.0009999 -0.528 -0.44999999 15
3.099 -0.54000002 -0.414 14
3.1960001 -0.55199999 -0.37599999 13
3.3069999 -0.56599998 -0.336 15
3.418 -0.57999998 -0.294 17
2.9119999 -0.493 -0.48199999 15
3.0020001 -0.50300002 -0.44800001 16
3.095 -0.51300001 -0.412 14
3.197 -0.52499998 -0.375 14
3.306 -0.53799999 -0.33500001 14
3.427 -0.55299997 -0.29300001 18
2.9119999 -0.46799999 -0.48100001 17
3.003 -0.47799999 -0.447 14
3.098 -0.48800001 -0.412 16
3.2019999 -0.5 -0.37400001 14
3.3039999 -0.51099998 -0.33399999 13
3.4189999 -0.52399999 -0.292 16
2.914 -0.44400001 -0.47999999 15
3.01 -0.454 -0.447 15
3.0969999 -0.46200001 -0.41100001 14
3.201 -0.47299999 -0.373 13
3.3099999 -0.484 -0.33399999 14
3.4159999 -0.495 -0.29100001 18
2.911 -0.419 -0.479 15
3.0050001 -0.428 -0.44600001 14
3.098 -0.43599999 -0.41 12
3.2019999 -0.44600001 -0.373 13
3.306 -0.456 -0.33199999 14
3.415 -0.46700001 -0.28999999 15
2.914 -0.39500001 -0.47799999 15
3.0009999 -0.40200001 -0.44400001 15
3.096 -0.41 -0.40900001 12
3.1960001 -0.419 -0.37099999 13
3.3069999 -0.43000001 -0.33199999 15
3.4189999 -0.44 -0.28999999 17
0 6.1440001 0 0
0 0 0 0
0 0 0 0
0 0 0 255
2.9119999 -0.37 -0.477 14
3.0079999 -0.37799999 -0.44499999 14
3.0999999 -0.38499999 -0.40900001 14
3.1989999 -0.39300001 -0.37099999 13
3.306 -0.40200001 -0.331 15
3.418 -0.412 -0.289 16
2.9130001 -0.34599999 -0.477 13
3.0009999 -0.352 -0.44299999 13
3.099 -0.36000001 -0.40799999 14
3.1930001 -0.366 -0.37 13
3.306 -0.375 -0.331 13
3.418 -0.384 -0.289 18
2.914 -0.322 -0.477 14
3.003 -0.32800001 -0.44299999 13
3.096 -0.33399999 -0.40700001 14
3.1930001 -0.34099999 -0.37 14
3.296 -0.34799999 -0.33000001 14
3.415 -0.35699999 -0.28799999 16
2.9189999 -0.29800001 -0.477 14
2.9960001 -0.303 -0.442 15
3.095 -0.30899999 -0.40700001 12
3.1919999 -0.315 -0.36899999 14
3.3010001 -0.322 -0.33000001 14
3.411 -0.329 -0.28799999 17
2.915 -0.27399999 -0.47600001 13
3.0009999 -0.278 -0.442 13
3.095 -0.28299999 -0.40700001 12
3.1919999 -0.289 -0.36899999 13
3.299 -0.29499999 -0.33000001 14
3.4059999 -0.301 -0.287 15
2.9159999 -0.25 -0.47600001 14
2.9990001 -0.25400001 -0.442 15
3.0899999 -0.25799999 -0.40599999 14
3.1889999 -0.26300001 -0.36899999 14
3.2920001 -0.26800001 -0.329 13
3.4059999 -0.27399999 -0.28799999 15
2.9100001 -0.226 -0.47499999 14
2.994 -0.229 -0.44100001 15
3.082 -0.23199999 -0.405 13
3.188 -0.237 -0.36899999 12
3.293 -0.242 -0.329 13
3.404 -0.24699999 -0.28799999 17
2.908 -0.20200001 -0.47499999 15
2.9979999 -0.205 -0.442 13
3.086 -0.208 -0.40599999 13
3.1760001 -0.211 -0.368 14
3.289 -0.215 -0.329 13
3.3970001 -0.22 -0.287 19
2.9000001 -0.178 -0.47400001 15
2.997 -0.18099999 -0.442 12
3.0829999 -0.183 -0.40599999 12
3.177 -0.186 -0.368 13
3.286 -0.189 -0.329 14
3.3970001 -0.193 -0.28799999 15
2.902 -0.155 -0.47499999 15
2.9890001 -0.15700001 -0.44100001 14
3.0840001 -0.15899999 -0.40599999 15
3.1760001 -0.161 -0.36899999 11
3.2850001 -0.164 -0.33000001 13
3.3889999 -0.16599999 -0.28799999 16
2.8959999 -0.131 -0.47400001 16
2.987 -0.133 -0.442 13
3.075 -0.134 -0.40599999 14
3.171 -0.13600001 -0.36899999 13
3.279 -0.138 -0.33000001 14
3.388 -0.14 -0.28799999 16
2.8970001 -0.108 -0.47499999 14
2.9879999 -0.109 -0.442 13
3.0769999 -0.11 -0.40700001 12
3.1700001 -0.111 -0.36899999 12
3.273 -0.112 -0.33000001 13
3.3889999 -0.113 -0.289 16
2.892 -0.085000001 -0.47499999 15
2.9849999 -0.085000001 -0.44299999 13
3.0710001 -0.085000001 -0.40700001 14
3.164 -0.086000003 -0.36899999 13
3.2690001 -0.086000003 -0.33000001 14
3.3740001 -0.086999997 -0.289 14
2.8900001 -0.061999999 -0.47499999 14
2.98 -0.061999999 -0.44299999 14
3.0699999 -0.061999999 -0.40700001 12
3.155 -0.061000001 -0.36899999 12
3.2709999 -0.061000001 -0.33199999 15
3.3789999 -0.061000001 -0.28999999 17
2.8840001 -0.039000001 -0.47499999 13
2.977 -0.037999999 -0.44299999 13
3.0650001 -0.037999999 -0.40799999 13
3.152 -0.037 -0.37 11
3.2650001 -0.035999998 -0.33199999 13
3.3759999 -0.035 -0.29100001 15
2.8840001 -0.017000001 -0.47600001 14
2.9719999 -0.015 -0.44299999 13
3.0580001 -0.014 -0.40799999 13
3.155 -0.012 -0.37099999 13
3.2639999 -0.011 -0.333 14
3.3710001 -0.0089999996 -0.29100001 15
0 6.1440001 0 0
0 0 0 0
0 0 0 0
0 0 0 255
2.878 0.0049999999 -0.47600001 14
2.973 0.0070000002 -0.44499999 13
3.0550001 0.0089999996 -0.40900001 12
3.1470001 0.011 -0.37099999 13
3.2590001 0.013 -0.33399999 13
3.3670001 0.015 -0.292 14
2.8770001 0.027000001 -0.477 14
2.9649999 0.029999999 -0.44499999 13
3.052 0.032000002 -0.40900001 14
3.1389999 0.035 -0.37200001 14
3.256 0.037999999 -0.33399999 14
3.362 0.041000001 -0.29300001 16
2.8729999 0.050000001 -0.47799999 16
2.9590001 0.052000001 -0.44499999 15
3.052 0.055 -0.41100001 13
3.141 0.059 -0.373 13
3.2550001 0.063000001 -0.336 15
3.3559999 0.066 -0.294 15
2.865 0.071999997 -0.47799999 17
2.96 0.075000003 -0.447 13
3.0450001 0.079000004 -0.41100001 13
3.138 0.082999997 -0.37400001 13
3.2449999 0.086999997 -0.336 12
3.3559999 0.090999998 -0.29499999 17
2.862 0.093000002 -0.479 18
2.951 0.097000003 -0.447 13
3.04 0.102 -0.412 15
3.128 0.106 -0.37400001 13
3.24 0.111 -0.33700001 12
3.3529999 0.116 -0.29699999 15
2.8570001 0.115 -0.47999999 17
2.9530001 0.12 -0.44800001 12
3.039 0.124 -0.41299999 12
3.128 0.12899999 -0.37599999 12
3.2409999 0.13500001 -0.33899999 13
3.345 0.14 -0.29699999 16
2.8540001 0.13600001 -0.48100001 17
2.938 0.141 -0.44800001 14
3.0339999 0.147 -0.414 13
3.1210001 0.152 -0.37599999 12
3.233 0.15899999 -0.33899999 13
3.342 0.16500001 -0.29899999 16
2.8499999 0.15800001 -0.48100001 16
2.938 0.163 -0.449 13
3.0320001 0.169 -0.41499999 13
3.118 0.175 -0.37799999 13
3.227 0.182 -0.34 13
3.3369999 0.189 -0.30000001 17
2.8499999 0.17900001 -0.48300001 14
2.9349999 0.185 -0.44999999 14
3.027 0.192 -0.41600001 13
3.112 0.198 -0.37900001 13
3.2219999 0.205 -0.34099999 13
3.3340001 0.214 -0.301 15
2.8440001 0.2 -0.484 17
2.934 0.207 -0.45199999 14
3.016 0.213 -0.41600001 13
3.105 0.22 -0.37900001 12
3.223 0.229 -0.34299999 13
3.326 0.237 -0.30199999 15
2.839 0.221 -0.48500001 16
2.9289999 0.228 -0.45300001 13
3.023 0.236 -0.419 13
3.1070001 0.243 -0.38100001 12
3.2160001 0.252 -0.34400001 15
3.325 0.26100001 -0.30399999 15
2.8280001 0.241 -0.48500001 17
2.9219999 0.249 -0.454 13
3.0139999 0.257 -0.41999999 13
3.0969999 0.264 -0.382 15
3.207 0.27399999 -0.345 14
3.3150001 0.28400001 -0.30500001 16
2.8310001 0.26199999 -0.48699999 16
2.914 0.27000001 -0.454 13
3.0109999 0.27900001 -0.421 13
3.096 0.28600001 -0.384 13
3.197 0.296 -0.34599999 12
3.3080001 0.30700001 -0.30599999 18
2.823 0.28200001 -0.48699999 17
2.9130001 0.29100001 -0.456 13
3.0039999 0.30000001 -0.42199999 13
3.0929999 0.308 -0.38499999 13
3.1989999 0.31900001 -0.34799999 14
3.3010001 0.329 -0.30700001 16
2.822 0.30199999 -0.48899999 15
2.902 0.31 -0.456 11
3 0.32100001 -0.42300001 14
3.0869999 0.33000001 -0.38600001 13
3.1930001 0.34099999 -0.34900001 13
3.29 0.35100001 -0.308 15
2.812 0.32100001 -0.48899999 17
2.902 0.331 -0.458 13
3.0009999 0.34200001 -0.42500001 12
3.0769999 0.34999999 -0.38699999 15
3.184 0.36199999 -0.34999999 14
3.2939999 0.375 -0.31 17
0 6.1440001 0 0
0 0 0 0
0 0 0 0
0 0 0 255
2.806 0.34 -0.49000001 15
2.904 0.352 -0.46000001 13
2.9920001 0.36199999 -0.426 13
3.079 0.37200001 -0.389 13
3.1730001 0.38299999 -0.34999999 12
3.2850001 0.39700001 -0.31099999 15
2.8099999 0.361 -0.493 15
2.8989999 0.37200001 -0.461 15
2.987 0.382 -0.42699999 13
3.0710001 0.39300001 -0.38999999 13
3.174 0.405 -0.352 16
3.2739999 0.41800001 -0.31200001 14
2.8010001 0.37900001 -0.493 17
2.888 0.38999999 -0.461 17
2.98 0.40200001 -0.428 16
3.063 0.41299999 -0.391 13
3.1659999 0.426 -0.35299999 13
3.2750001 0.44100001 -0.31400001 17
2.8039999 0.39899999 -0.49599999 25
2.8900001 0.41100001 -0.463 14
2.98 0.42300001 -0.43000001 12
3.0639999 0.43399999 -0.39199999 13
3.165 0.44800001 -0.35499999 16
3.2709999 0.46200001 -0.315 17
2.793 0.417 -0.49599999 16
2.8870001 0.43000001 -0.465 14
2.97 0.442 -0.43000001 13
3.0539999 0.45300001 -0.39300001 14
3.1570001 0.46799999 -0.35600001 14
3.266 0.48300001 -0.31600001 17
2.7939999 0.43700001 -0.498 16
2.885 0.449 -0.46599999 14
2.957 0.46000001 -0.43000001 16
3.0480001 0.47299999 -0.39399999 14
3.1559999 0.48899999 -0.35699999 16
3.256 0.50400001 -0.317 17
2.7850001 0.454 -0.498 16
2.878 0.46799999 -0.46700001 13
2.9630001 0.47999999 -0.43200001 13
3.046 0.493 -0.39500001 14
3.142 0.50700003 -0.35800001 15
3.253 0.52399999 -0.31900001 17
2.7820001 0.472 -0.49900001 15
2.868 0.48500001 -0.46700001 14
2.954 0.498 -0.433 15
3.0420001 0.51200002 -0.39700001 13
3.1429999 0.528 -0.359 15
3.247 0.54400003 -0.31999999 19
2.7780001 0.49000001 -0.5 16
2.8610001 0.50300002 -0.46799999 12
2.948 0.51700002 -0.43399999 13
3.039 0.53100002 -0.398 13
3.1370001 0.54699999 -0.36000001 15
3.243 0.565 -0.32100001 16
2.773 0.50700003 -0.50099999 16
2.8570001 0.51999998 -0.46900001 15
2.95 0.53600001 -0.43599999 14
3.0339999 0.55000001 -0.39899999 14
3.1329999 0.56599998 -0.361 16
3.233 0.58399999 -0.32100001 16
2.766 0.523 -0.50099999 16
2.8610001 0.54000002 -0.47099999 15
2.9389999 0.55299997 -0.43599999 16
3.029 0.56800002 -0.40000001 15
3.1289999 0.58499998 -0.36199999 14
3.234 0.60399997 -0.32300001 16
2.767 0.54100001 -0.50300002 18
2.8540001 0.55599999 -0.47099999 15
2.9419999 0.57099998 -0.43700001 13
3.02 0.58499998 -0.40000001 12
3.115 0.602 -0.36199999 13
3.227 0.62199998 -0.32300001 18
2.763 0.55800003 -0.50400001 16
2.8469999 0.57300001 -0.472 15
2.9360001 0.58899999 -0.43799999 15
3.0190001 0.60299999 -0.40099999 14
3.1099999 0.62 -0.36300001 15
3.2219999 0.64099997 -0.324 15
2.7590001 0.574 -0.505 17
2.846 0.58999997 -0.47299999 15
2.9349999 0.60600001 -0.43900001 14
3.017 0.62099999 -0.40200001 14
3.1129999 0.639 -0.36399999 13
3.2179999 0.66000003 -0.32499999 16
2.7539999 0.58999997 -0.505 17
2.8429999 0.60600001 -0.47400001 14
2.934 0.62300003 -0.44 14
3.0150001 0.639 -0.403 15
3.105 0.65600002 -0.36500001 14
3.2160001 0.67799997 -0.32600001 18
2.7490001 0.60500002 -0.505 17
2.8329999 0.62099999 -0.47299999 15
2.9189999 0.63800001 -0.43900001 17
3.007 0.65499997 -0.403 13
3.102 0.67299998 -0.36500001 15
3.2079999 0.69499999 -0.32600001 18
0 6.1440001 0 0
0 0 0 0
0 0 0 0
0 0 0 255
2.7460001 0.62 -0.50599998 16
2.829 0.63700002 -0.47400001 16
2.921 0.65499997 -0.44100001 14
3.0120001 0.67299998 -0.405 13
3.102 0.69099998 -0.366 14
3.214 0.71399999 -0.32800001 18
2.747 0.63700002 -0.50700003 19
2.8280001 0.653 -0.47499999 15
2.9159999 0.67000002 -0.44100001 14
3.006 0.68900001 -0.405 13
3.096 0.708 -0.36700001 16
3.2019999 0.73000002 -0.32699999 16
2.7460001 0.65200001 -0.50800002 19
2.829 0.66900003 -0.47600001 16
2.9170001 0.68699998 -0.442 14
3.0020001 0.70499998 -0.405 14
3.1059999 0.727 -0.368 16
3.2079999 0.74900001 -0.329 17
2.737 0.66500002 -0.50700003 18
2.8210001 0.68199998 -0.47499999 15
2.914 0.70200002 -0.442 15
3 0.72000003 -0.405 16
3.0899999 0.74000001 -0.36700001 15
3.1989999 0.764 -0.32800001 32
2.7349999 0.67900002 -0.50700003 17
2.8239999 0.69800001 -0.47600001 17
2.914 0.71799999 -0.44299999 15
2.993 0.73500001 -0.405 15
3.092 0.75700003 -0.368 16
3.1960001 0.77999997 -0.32800001 47
2.737 0.69400001 -0.50800002 18
2.822 0.713 -0.47600001 14
2.9100001 0.73199999 -0.442 14
2.9909999 0.75 -0.405 13
3.095 0.773 -0.368 16
3.194 0.796 -0.32800001 49
2.733 0.70700002 -0.50800002 18
2.8199999 0.727 -0.477 17
2.908 0.74599999 -0.442 15
2.9909999 0.76499999 -0.405 15
3.0899999 0.78799999 -0.368 16
3.197 0.81300002 -0.329 50
2.73 0.72000003 -0.50800002 16
2.822 0.741 -0.477 15
2.9070001 0.75999999 -0.44299999 15
2.9879999 0.778 -0.405 12
3.0969999 0.80400002 -0.36899999 21
3.194 0.82700002 -0.32800001 49
2.73 0.73299998 -0.50800002 16
2.816 0.75300002 -0.47600001 15
2.9059999 0.77399999 -0.442 15
2.9879999 0.79299998 -0.405 13
3.0880001 0.81699997 -0.368 39
3.1930001 0.84200001 -0.32800001 50
2.734 0.74699998 -0.509 18
2.822 0.76800001 -0.477 15
2.904 0.787 -0.442 14
2.9909999 0.80699998 -0.405 15
3.0940001 0.83200002 -0.368 47
3.1919999 0.85699999 -0.32800001 50
2.73 0.75800002 -0.50800002 17
2.8139999 0.778 -0.47600001 16
2.904 0.79900002 -0.442 15
2.983 0.81800002 -0.40400001 15
3.0910001 0.84500003 -0.368 47
3.191 0.87 -0.32699999 49
2.7320001 0.77100003 -0.50800002 17
2.8150001 0.79000002 -0.47499999 15
2.9070001 0.81300002 -0.442 14
2.99 0.833 -0.405 14
3.0880001 0.85799998 -0.36700001 47
3.1889999 0.88300002 -0.32600001 55
2.7260001 0.77999997 -0.50700003 17
2.8139999 0.80199999 -0.47499999 16
2.8959999 0.82200003 -0.44 15
2.993 0.84600002 -0.40400001 19
3.0929999 0.87199998 -0.36700001 49
3.1919999 0.89700001 -0.32600001 52
2.7349999 0.79400003 -0.50800002 18
2.8180001 0.81400001 -0.47499999 15
2.9059999 0.83600003 -0.44100001 15
2.9960001 0.85900003 -0.40400001 30
3.089 0.88300002 -0.36500001 46
3.197 0.91100001 -0.32600001 53
2.7320001 0.80400002 -0.50599998 16
2.8180001 0.82499999 -0.47400001 14
2.9000001 0.84600002 -0.43900001 16
2.997 0.87099999 -0.403 45
3.0869999 0.89399999 -0.36399999 47
3.191 0.92199999 -0.324 40
2.733 0.81400001 -0.50599998 19
2.8199999 0.83600003 -0.47299999 14
2.908 0.85900003 -0.43900001 19
2.9960001 0.88099998 -0.40200001 45
3.092 0.90700001 -0.36399999 46
3.191 0.93300003 -0.32300001 25
0 6.1440001 0 0
0 0 0 0
0 0 0 0
0 0 0 255
2.734 0.824 -0.505 16
2.8199999 0.84600002 -0.47299999 15
2.904 0.86699998 -0.43700001 16
2.997 0.89200002 -0.40099999 46
3.0910001 0.917 -0.36199999 43
3.197 0.94599998 -0.322 18
2.7360001 0.83399999 -0.50400001 15
2.822 0.85600001 -0.472 17
2.904 0.87699997 -0.43599999 18
2.994 0.90100002 -0.39899999 44
3.0910001 0.92699999 -0.361 44
3.2 0.95700002 -0.31999999 18
2.74 0.84299999 -0.50300002 17
2.8199999 0.86400002 -0.47 15
2.9089999 0.88700002 -0.435 28
3.0020001 0.912 -0.398 45
3.1029999 0.94 -0.36000001 45
3.2079999 0.96899998 -0.31900001 15
2.737 0.85000002 -0.50099999 18
2.822 0.87199998 -0.46799999 15
2.908 0.89499998 -0.433 40
3.0050001 0.92199999 -0.39700001 43
3.1029999 0.949 -0.35800001 49
3.21 0.97899997 -0.31799999 17
2.7409999 0.85799998 -0.5 17
2.826 0.88099998 -0.46799999 16
2.9130001 0.90399998 -0.43200001 45
3.01 0.93099999 -0.396 44
3.1010001 0.95599997 -0.35600001 39
3.2090001 0.98699999 -0.31600001 18
2.737 0.86400002 -0.498 19
2.8269999 0.88800001 -0.465 16
2.9130001 0.912 -0.43000001 43
3.0109999 0.93900001 -0.39399999 47
3.102 0.96399999 -0.354 28
3.21 0.995 -0.31299999 18
2.7449999 0.87300003 -0.49700001 17
2.829 0.89499998 -0.46399999 16
2.9200001 0.92000002 -0.42899999 47
3.0190001 0.94800001 -0.39300001 47
3.108 0.97299999 -0.352 18
3.2260001 1.007 -0.31299999 17
2.7490001 0.87900001 -0.49599999 16
2.835 0.903 -0.463 17
2.9200001 0.926 -0.42699999 47
3.0190001 0.954 -0.38999999 44
3.1170001 0.98199999 -0.35100001 15
3.227 1.0140001 -0.31 17
2.7509999 0.88499999 -0.49399999 17
2.835 0.90799999 -0.46000001 18
2.924 0.93300003 -0.42500001 48
3.0209999 0.95999998 -0.38800001 47
3.125 0.99000001 -0.34900001 15
3.2349999 1.022 -0.308 18
2.7609999 0.89300001 -0.493 17
2.848 0.917 -0.46000001 27
2.9319999 0.94 -0.42399999 46
3.0280001 0.96700001 -0.38600001 44
3.132 0.99699998 -0.347 17
3.237 1.028 -0.30500001 18
2.7620001 0.89700001 -0.491 18
2.846 0.92000002 -0.45699999 41
2.9330001 0.94400001 -0.421 46
3.029 0.972 -0.384 46
3.1340001 1.002 -0.34400001 17
3.2409999 1.034 -0.303 21
2.7650001 0.90100002 -0.48899999 17
2.846 0.92299998 -0.454 48
2.937 0.949 -0.419 47
3.0439999 0.98000002 -0.38299999 44
3.1429999 1.0089999 -0.34200001 16
3.2479999 1.04 -0.30000001 17
2.7720001 0.90499997 -0.48699999 17
2.8510001 0.92699999 -0.45199999 48
2.9400001 0.95200002 -0.41600001 44
3.046 0.98299998 -0.38 43
3.1489999 1.013 -0.34 16
3.2550001 1.045 -0.29800001 21
2.7750001 0.90799999 -0.48500001 17
2.859 0.93199998 -0.44999999 49
2.947 0.95700002 -0.414 48
3.043 0.98400003 -0.37599999 36
3.151 1.016 -0.33700001 16
3.2609999 1.049 -0.29499999 22
2.779 0.91100001 -0.48199999 17
2.869 0.93599999 -0.449 52
2.9619999 0.96200001 -0.41299999 46
3.0510001 0.98799998 -0.37400001 29
3.1619999 1.021 -0.33500001 16
3.266 1.052 -0.292 19
2.7869999 0.91399997 -0.48100001 17
2.8710001 0.93699998 -0.44600001 48
2.97 0.96600002 -0.41100001 46
3.056 0.99000001 -0.37099999 24
3.1689999 1.024 -0.33199999 16
3.2750001 1.056 -0.289 19
0 6.1440001 0 0
0 0 0 0
0 0 0 0
0 0 0 255
2.7939999 0.91600001 -0.47799999 18
2.8759999 0.93900001 -0.44299999 48
2.9719999 0.96600002 -0.40700001 46
3.0639999 0.99299997 -0.368 18
3.1789999 1.027 -0.329 15
3.2880001 1.0599999 -0.28600001 18
2.7969999 0.91600001 -0.47600001 18
2.8859999 0.94099998 -0.44100001 47
2.977 0.96700001 -0.405 43
3.0699999 0.99400002 -0.366 17
3.184 1.028 -0.32600001 16
3.2950001 1.061 -0.28299999 19
2.8069999 0.91799998 -0.47400001 19
2.8940001 0.94199997 -0.43900001 45
2.987 0.96899998 -0.40200001 46
3.0840001 0.99699998 -0.36399999 16
3.184 1.026 -0.322 15
3.2980001 1.061 -0.27900001 19
2.8239999 0.921 -0.47299999 19
2.8970001 0.94099998 -0.43599999 45
2.9979999 0.97000003 -0.40000001 45
3.086 0.995 -0.36000001 15
3.201 1.029 -0.31999999 15
3.3099999 1.062 -0.27599999 20
2.8199999 0.917 -0.46900001 22
2.902 0.94 -0.433 47
2.9990001 0.96799999 -0.39700001 45
3.0940001 0.995 -0.35699999 14
3.2019999 1.027 -0.317 15
3.309 1.059 -0.27200001 20
2.826 0.91600001 -0.46599999 21
2.908 0.93800002 -0.43000001 48
3.0090001 0.96700001 -0.39399999 45
3.1040001 0.99400002 -0.35499999 14
3.2160001 1.027 -0.31400001 16
3.322 1.059 -0.26899999 19
2.832 0.91299999 -0.46399999 21
2.914 0.93599999 -0.428 49
3.013 0.96399999 -0.391 47
3.109 0.99199998 -0.35100001 14
3.223 1.025 -0.31099999 16
3.339 1.0599999 -0.26699999 19
2.8440001 0.912 -0.46200001 24
2.9200001 0.93300003 -0.42500001 47
3.0220001 0.96200001 -0.38800001 47
3.1199999 0.99000001 -0.34900001 15
3.2279999 1.021 -0.30700001 16
3.3469999 1.057 -0.26300001 20
2.846 0.90799999 -0.45899999 21
2.938 0.93300003 -0.42300001 44
3.036 0.96100003 -0.38600001 45
3.1300001 0.98699999 -0.34599999 15
3.2360001 1.018 -0.30399999 16
3.3540001 1.053 -0.25999999 20
2.859 0.90499997 -0.45699999 22
2.9460001 0.92900002 -0.421 45
3.0309999 0.95300001 -0.382 48
3.1359999 0.98299998 -0.34299999 15
3.2509999 1.016 -0.301 16
3.3629999 1.049 -0.25600001 19
2.8570001 0.898 -0.45300001 20
2.951 0.92400002 -0.41800001 45
3.0480001 0.95099998 -0.38 45
3.148 0.97899997 -0.34 14
3.253 1.0089999 -0.29800001 14
3.3710001 1.044 -0.25299999 17
2.8659999 0.89399999 -0.45100001 17
2.9560001 0.91799998 -0.41499999 45
3.0539999 0.94499999 -0.377 46
3.1530001 0.97299999 -0.33700001 13
3.2650001 1.005 -0.29499999 16
3.3800001 1.038 -0.249 18
2.875 0.889 -0.44800001 17
2.9649999 0.91299999 -0.412 46
3.0599999 0.93900001 -0.37400001 46
3.164 0.96799999 -0.33399999 14
3.2750001 0.99900001 -0.292 15
3.391 1.0319999 -0.24600001 19
2.8789999 0.88099998 -0.44499999 21
2.9760001 0.90700001 -0.41 44
3.073 0.93400002 -0.37200001 47
3.1700001 0.95999998 -0.331 15
3.286 0.99299997 -0.289 15
3.401 1.025 -0.243 18
2.8870001 0.875 -0.44299999 20
2.9790001 0.89899999 -0.40700001 42
3.0769999 0.92500001 -0.36899999 49
3.177 0.95300001 -0.32800001 16
3.2909999 0.98400003 -0.285 16
3.4070001 1.017 -0.23899999 22
2.895 0.86799997 -0.44100001 19
2.9820001 0.88999999 -0.403 45
3.0829999 0.917 -0.366 48
3.1800001 0.94300002 -0.324 20
3.302 0.977 -0.28200001 17
3.4089999 1.006 -0.236 19
0 6.1440001 0 0
0 0 0 0
0 0 0 0
0 0 0 255
2.9030001 0.86000001 -0.43799999 19
2.9909999 0.88200003 -0.40099999 44
3.086 0.90700001 -0.36199999 47
3.1849999 0.93300003 -0.32100001 23
3.312 0.96799999 -0.27900001 17
3.428 1 -0.233 19
2.904 0.84899998 -0.435 18
2.997 0.87300003 -0.398 47
3.099 0.89899999 -0.36000001 50
3.198 0.92500001 -0.31900001 34
3.3199999 0.958 -0.27599999 17
3.431 0.98799998 -0.23 19
2.9159999 0.84100002 -0.433 19
3.0079999 0.86400002 -0.39700001 48
3.105 0.889 -0.35699999 51
3.2030001 0.91399997 -0.31600001 39
3.329 0.94800001 -0.27399999 23
3.4449999 0.97899997 -0.227 19
2.9170001 0.82999998 -0.43000001 18
3.02 0.85500002 -0.39500001 46
3.1099999 0.87800002 -0.35499999 54
3.2160001 0.90499997 -0.31400001 45
3.332 0.935 -0.27000001 16
3.451 0.96600002 -0.22400001 22
2.9260001 0.81900001 -0.428 18
3.029 0.84500003 -0.39300001 35
3.1199999 0.86699998 -0.35299999 50
3.221 0.89300001 -0.31099999 46
3.3410001 0.92400002 -0.26800001 16
3.4579999 0.954 -0.221 20
2.9319999 0.80800003 -0.426 20
3.029 0.83200002 -0.389 23
3.125 0.85500002 -0.34999999 48
3.23 0.88099998 -0.30899999 48
3.348 0.91100001 -0.26499999 17
3.4679999 0.94199997 -0.21799999 20
2.947 0.79900002 -0.42500001 18
3.0339999 0.81900001 -0.38699999 18
3.138 0.84399998 -0.34799999 50
3.237 0.86799997 -0.30599999 51
3.3570001 0.898 -0.26199999 16
3.483 0.93000001 -0.21600001 20
2.95 0.78600001 -0.42199999 18
3.046 0.80800003 -0.38499999 18
3.1440001 0.83099997 -0.34599999 50
3.243 0.85500002 -0.303 55
3.362 0.884 -0.25999999 17
3.4849999 0.91399997 -0.213 19
2.954 0.773 -0.41999999 18
3.046 0.79299998 -0.382 19
3.1500001 0.81800002 -0.34400001 50
3.2490001 0.84100002 -0.301 53
3.372 0.87 -0.25799999 15
3.4949999 0.89999998 -0.20999999 19
2.96 0.759 -0.41800001 17
3.0550001 0.78100002 -0.38100001 17
3.155 0.80299997 -0.34099999 50
3.256 0.82599998 -0.29899999 50
3.3789999 0.85500002 -0.255 16
3.5050001 0.88499999 -0.208 22
2.9679999 0.74599999 -0.41600001 17
3.059 0.76599997 -0.37799999 18
3.161 0.78799999 -0.33899999 39
3.2590001 0.81 -0.296 40
3.382 0.83899999 -0.25299999 17
3.5079999 0.86799997 -0.205 21
2.97 0.73100001 -0.414 16
3.066 0.75199997 -0.377 20
3.168 0.77399999 -0.33700001 22
3.2650001 0.79500002 -0.294 22
3.391 0.82300001 -0.25099999 18
3.517 0.852 -0.20299999 22
2.9809999 0.71799999 -0.41299999 17
3.073 0.73699999 -0.375 19
3.177 0.759 -0.336 19
3.2739999 0.77999997 -0.29300001 17
3.3970001 0.80699998 -0.249 16
3.526 0.83499998 -0.20100001 22
2.983 0.70200002 -0.41100001 19
3.0739999 0.72000003 -0.373 16
3.1789999 0.74199998 -0.33399999 17
3.273 0.76099998 -0.28999999 16
3.402 0.78899997 -0.24600001 17
3.53 0.81699997 -0.199 20
2.9849999 0.68599999 -0.40900001 20
3.082 0.70499998 -0.37200001 18
3.181 0.72500002 -0.33199999 16
3.2869999 0.74599999 -0.289 16
3.4119999 0.77200001 -0.245 18
3.5350001 0.79799998 -0.197 20
2.9879999 0.66900003 -0.40700001 20
3.0829999 0.68699998 -0.37 17
3.187 0.708 -0.33000001 19
3.293 0.72899997 -0.287 16
3.414 0.75300002 -0.243 17
3.5380001 0.77899998 -0.19499999 19
0 6.1440001 0 0
0 0 0 0
0 0 0 0
0 0 0 255
2.99 0.65200001 -0.405 22
3.0899999 0.671 -0.368 19
3.1930001 0.69 -0.329 22
3.2909999 0.70899999 -0.285 17
3.4189999 0.73400003 -0.241 21
3.5450001 0.759 -0.193 20
2.993 0.63499999 -0.40400001 28
3.0880001 0.65200001 -0.366 17
3.1949999 0.67199999 -0.32699999 21
3.299 0.69099998 -0.28400001 18
3.4219999 0.71499997 -0.23999999 22
3.549 0.73900002 -0.192 22
2.9890001 0.616 -0.40200001 26
3.0880001 0.634 -0.36399999 27
3.187 0.65100002 -0.324 22
3.303 0.67199999 -0.28299999 22
3.4260001 0.69499999 -0.23800001 22
3.5580001 0.71899998 -0.19 23
2.9920001 0.59799999 -0.40000001 27
3.0940001 0.616 -0.36300001 26
3.1889999 0.63200003 -0.32300001 25
3.3039999 0.65200001 -0.28099999 24
3.434 0.67500001 -0.237 24
3.5599999 0.69800001 -0.189 20
3.013 0.58399999 -0.40099999 23
3.0999999 0.597 -0.36199999 31
3.194 0.61299998 -0.322 31
3.3080001 0.63200003 -0.28 30
3.428 0.653 -0.235 33
3.563 0.676 -0.18700001 20
3.0079999 0.56400001 -0.39899999 24
3.1059999 0.579 -0.36199999 17
3.2079999 0.59500003 -0.322 17
3.319 0.61299998 -0.27900001 23
3.4349999 0.63200003 -0.234 27
3.5650001 0.65399998 -0.186 38
3.0139999 0.54500002 -0.398 20
3.115 0.56099999 -0.361 19
3.214 0.57599998 -0.32100001 19
3.3269999 0.59299999 -0.278 16
3.4360001 0.61000001 -0.233 35
3.5650001 0.63099998 -0.185 34
3.02 0.52700001 -0.398 19
3.1210001 0.542 -0.361 17
3.22 0.55599999 -0.31999999 19
3.3340001 0.57300001 -0.278 18
3.448 0.58999997 -0.23199999 20
3.5739999 0.60900003 -0.184 29
3.029 0.509 -0.398 17
3.125 0.52200001 -0.36000001 16
3.23 0.53600001 -0.31999999 16
3.3380001 0.55199999 -0.27700001 17
3.447 0.56699997 -0.23100001 20
3.582 0.58700001 -0.183 26
3.0280001 0.48800001 -0.396 19
3.1340001 0.50199997 -0.36000001 16
3.233 0.51599997 -0.31900001 15
3.3369999 0.52899998 -0.27599999 16
3.461 0.54699999 -0.23100001 20
3.592 0.565 -0.183 24
3.0339999 0.46900001 -0.396 20
3.131 0.48100001 -0.35800001 17
3.2290001 0.493 -0.317 16
3.3380001 0.50700003 -0.27500001 16
3.47 0.52399999 -0.23100001 18
3.595 0.54100001 -0.182 22
3.0339999 0.44800001 -0.39500001 18
3.141 0.461 -0.35800001 15
3.2420001 0.47299999 -0.31799999 16
3.348 0.486 -0.27500001 16
3.47 0.50099999 -0.23 20
3.598 0.51700002 -0.18099999 21
3.04 0.428 -0.39500001 16
3.1400001 0.43900001 -0.35699999 16
3.24 0.45100001 -0.317 15
3.3510001 0.46399999 -0.27399999 17
3.4749999 0.47799999 -0.229 18
3.6010001 0.493 -0.18099999 21
3.0450001 0.40799999 -0.39500001 20
3.1489999 0.419 -0.35800001 14
3.2509999 0.43000001 -0.317 15
3.3540001 0.44100001 -0.27399999 17
3.474 0.454 -0.228 18
3.6070001 0.46900001 -0.18000001 24
3.05 0.38699999 -0.39500001 18
3.1530001 0.398 -0.35699999 14
3.2520001 0.40700001 -0.31600001 15
3.3559999 0.417 -0.273 16
3.4719999 0.42899999 -0.228 18
3.6040001 0.44299999 -0.17900001 20
3.0539999 0.366 -0.39399999 25
3.151 0.375 -0.35600001 16
3.2550001 0.384 -0.31600001 13
3.358 0.39399999 -0.273 16
3.4790001 0.405 -0.227 17
3.612 0.41800001 -0.17900001 19
0 6.1440001 0 0
0 0 0 0
0 0 0 0
0 0 0 255
3.0599999 0.345 -0.39500001 16
3.152 0.35299999 -0.35600001 14
3.253 0.361 -0.315 13
3.3629999 0.37 -0.273 18
3.4879999 0.38100001 -0.228 17
3.6170001 0.39300001 -0.17900001 20
3.062 0.324 -0.39399999 16
3.154 0.33000001 -0.35600001 13
3.257 0.338 -0.315 13
3.3699999 0.347 -0.273 15
3.493 0.35699999 -0.228 18
3.615 0.366 -0.17900001 19
3.0639999 0.30199999 -0.39399999 15
3.154 0.30700001 -0.35499999 12
3.2639999 0.315 -0.315 13
3.3729999 0.32300001 -0.273 14
3.494 0.331 -0.227 15
3.625 0.34099999 -0.17900001 19
3.062 0.27900001 -0.39300001 16
3.1659999 0.28600001 -0.35600001 13
3.2609999 0.29100001 -0.315 13
3.3740001 0.29800001 -0.27200001 15
3.49 0.30599999 -0.226 20
3.625 0.315 -0.178 19
3.066 0.257 -0.39300001 13
3.1600001 0.26199999 -0.35499999 13
3.2739999 0.26800001 -0.31600001 14
3.381 0.27399999 -0.27200001 14
3.507 0.28099999 -0.227 16
3.6289999 0.28799999 -0.178 23
3.069 0.235 -0.39300001 15
3.164 0.23899999 -0.35499999 15
3.273 0.244 -0.315 16
3.381 0.249 -0.27200001 13
3.5020001 0.255 -0.227 17
3.632 0.26100001 -0.178 19
3.0680001 0.212 -0.39300001 15
3.1700001 0.21600001 -0.35499999 15
3.276 0.22 -0.315 12
3.3829999 0.22400001 -0.27200001 13
3.506 0.229 -0.227 16
3.6340001 0.235 -0.178 20
3.0699999 0.189 -0.39300001 13
3.1659999 0.192 -0.35499999 12
3.273 0.19599999 -0.31400001 12
3.3840001 0.199 -0.27200001 14
3.507 0.20299999 -0.227 17
3.6400001 0.208 -0.178 19
3.0739999 0.167 -0.39300001 14
3.1630001 0.169 -0.354 11
3.2720001 0.171 -0.31400001 13
3.3870001 0.17399999 -0.27200001 14
3.5090001 0.177 -0.226 16
3.6370001 0.18000001 -0.178 17
3.076 0.14399999 -0.39300001 14
3.171 0.145 -0.35499999 12
3.2750001 0.147 -0.31400001 12
3.392 0.149 -0.27200001 15
3.5150001 0.15099999 -0.227 16
3.641 0.152 -0.178 19
3.0769999 0.12 -0.39300001 15
3.1689999 0.121 -0.354 12
3.2739999 0.121 -0.31400001 12
3.3900001 0.122 -0.27200001 13
3.5150001 0.123 -0.227 16
3.6429999 0.125 -0.178 21
3.0810001 0.097000003 -0.39300001 14
3.178 0.097000003 -0.35499999 13
3.279 0.097000003 -0.31400001 12
3.391 0.097000003 -0.27200001 12
3.516 0.097000003 -0.226 16
3.6470001 0.097000003 -0.178 19
3.0810001 0.072999999 -0.39300001 14
3.175 0.071999997 -0.354 12
3.279 0.071000002 -0.31400001 12
3.391 0.07 -0.271 13
3.517 0.07 -0.226 19
3.6489999 0.068000004 -0.178 20
3.0799999 0.048999999 -0.39300001 16
3.1819999 0.048 -0.35499999 12
3.2839999 0.046 -0.31400001 15
3.3940001 0.044 -0.271 12
3.52 0.041999999 -0.226 15
3.651 0.039999999 -0.178 21
3.0799999 0.026000001 -0.39300001 16
3.177 0.023 -0.354 13
3.2809999 0.02 -0.31400001 12
3.3940001 0.017000001 -0.271 13
3.5209999 0.015 -0.226 14
3.654 0.011 -0.178 20
3.085 0.0020000001 -0.39300001 17
3.1830001 -0.001 -0.35499999 13
3.2869999 -0.0049999999 -0.31400001 12
3.3970001 -0.0080000004 -0.271 14
3.5239999 -0.012 -0.226 16
3.654 -0.017000001 -0.178 20
0 6.1440001 0 0
0 0 0 0
0 0 0 0
0 0 0 255
3.089 -0.022 -0.39300001 15
3.1819999 -0.026000001 -0.354 15
3.2880001 -0.030999999 -0.31400001 13
3.401 -0.035 -0.27200001 15
3.5209999 -0.039999999 -0.226 15
3.6500001 -0.046 -0.177 16
3.0880001 -0.046 -0.39300001 14
3.184 -0.050999999 -0.35499999 13
3.3010001 -0.057 -0.315 14
3.401 -0.061999999 -0.271 12
3.529 -0.068000004 -0.226 15
3.6530001 -0.075000003 -0.177 16
3.0929999 -0.071000002 -0.39300001 12
3.1860001 -0.075999998 -0.35499999 13
3.2920001 -0.082999997 -0.31400001 12
3.405 -0.089000002 -0.271 12
3.5350001 -0.097000003 -0.226 16
3.6589999 -0.104 -0.177 21
3.095 -0.094999999 -0.39300001 15
3.1900001 -0.102 -0.35499999 12
3.2939999 -0.109 -0.31400001 13
3.4100001 -0.116 -0.27200001 12
3.533 -0.125 -0.226 17
3.6589999 -0.133 -0.177 17
3.096 -0.12 -0.39300001 13
3.198 -0.12800001 -0.35499999 13
3.2939999 -0.13500001 -0.31400001 14
3.4130001 -0.14399999 -0.27200001 13
3.5350001 -0.153 -0.226 14
3.665 -0.163 -0.177 15
3.0969999 -0.145 -0.39300001 15
3.197 -0.153 -0.35499999 13
3.299 -0.162 -0.31400001 11
3.411 -0.171 -0.271 13
3.5409999 -0.182 -0.226 16
3.6670001 -0.193 -0.177 17
3.0999999 -0.17 -0.39300001 14
3.1989999 -0.17900001 -0.35499999 12
3.303 -0.189 -0.31400001 12
3.421 -0.2 -0.27200001 12
3.539 -0.211 -0.22499999 16
3.6689999 -0.223 -0.176 17
3.1029999 -0.19599999 -0.39399999 15
3.201 -0.205 -0.35499999 13
3.3069999 -0.21600001 -0.31400001 11
3.4170001 -0.227 -0.271 11
3.543 -0.23999999 -0.22499999 14
3.671 -0.25299999 -0.176 17
3.1040001 -0.221 -0.39300001 16
3.204 -0.23199999 -0.35499999 14
3.313 -0.243 -0.315 11
3.421 -0.255 -0.271 12
3.5450001 -0.26899999 -0.22499999 15
3.677 -0.28400001 -0.176 17
3.109 -0.24699999 -0.39399999 15
3.2060001 -0.25799999 -0.35499999 14
3.312 -0.27000001 -0.31400001 12
3.421 -0.28400001 -0.27000001 11
3.55 -0.29899999 -0.22499999 15
3.687 -0.315 -0.176 17
3.1110001 -0.27200001 -0.39399999 14
3.2049999 -0.28400001 -0.354 13
3.3110001 -0.29800001 -0.31400001 12
3.425 -0.31200001 -0.27000001 12
3.5610001 -0.329 -0.22499999 13
3.6849999 -0.34599999 -0.175 17
3.1159999 -0.29899999 -0.39399999 14
3.211 -0.31099999 -0.35499999 13
3.319 -0.32600001 -0.31400001 12
3.4289999 -0.34099999 -0.27000001 13
3.5580001 -0.359 -0.22400001 15
3.688 -0.377 -0.175 17
3.1110001 -0.324 -0.39300001 14
3.2079999 -0.338 -0.354 14
3.323 -0.354 -0.31400001 12
3.4300001 -0.37 -0.27000001 12
3.5610001 -0.389 -0.22400001 14
3.694 -0.40900001 -0.17399999 18
3.119 -0.35100001 -0.39399999 15
3.2160001 -0.366 -0.354 14
3.3310001 -0.38299999 -0.31400001 11
3.434 -0.39899999 -0.26899999 12
3.5680001 -0.41999999 -0.223 15
3.7 -0.44100001 -0.17399999 17
3.115 -0.37599999 -0.39300001 19
3.217 -0.39300001 -0.354 15
3.339 -0.412 -0.31400001 12
3.4389999 -0.42899999 -0.26899999 12
3.575 -0.45100001 -0.223 15
3.7049999 -0.47299999 -0.17299999 20
3.1199999 -0.403 -0.39300001 16
3.2249999 -0.421 -0.354 13
3.3340001 -0.44 -0.31299999 11
3.4460001 -0.45899999 -0.26899999 14
3.5769999 -0.48199999 -0.222 15
3.707 -0.505 -0.17200001 18
0 6.1440001 0 0
0 0 0 0
0 0 0 0
0 0 0 255
3.1210001 -0.43000001 -0.39199999 16
3.2249999 -0.44800001 -0.354 13
3.3410001 -0.46900001 -0.31299999 12
3.4519999 -0.48899999 -0.26800001 12
3.5810001 -0.51300001 -0.222 14
3.7149999 -0.537 -0.17200001 17
3.122 -0.456 -0.39199999 15
3.224 -0.47600001 -0.35299999 12
3.3380001 -0.49700001 -0.31200001 12
3.454 -0.51899999 -0.26800001 13
3.5869999 -0.54400003 -0.221 14
3.7179999 -0.56999999 -0.171 18
3.125 -0.484 -0.39199999 17
3.227 -0.50400001 -0.35299999 13
3.3429999 -0.52600002 -0.31200001 11
3.46 -0.55000001 -0.26699999 13
3.5869999 -0.57599998 -0.22 14
3.724 -0.60299999 -0.17 20
3.1389999 -0.51300001 -0.39300001 18
3.2349999 -0.53299999 -0.35299999 13
3.352 -0.55599999 -0.31200001 13
3.4649999 -0.57999998 -0.26699999 13
3.5940001 -0.60699999 -0.22 16
3.7279999 -0.63599998 -0.169 18
3.1359999 -0.53899997 -0.39199999 18
3.24 -0.56099999 -0.352 13
3.358 -0.58700001 -0.31099999 12
3.4679999 -0.611 -0.266 13
3.605 -0.64099997 -0.219 17
3.7360001 -0.67000002 -0.168 17
3.1370001 -0.56699997 -0.391 18
3.2390001 -0.58999997 -0.352 13
3.3540001 -0.61500001 -0.31 13
3.47 -0.64200002 -0.26499999 14
3.608 -0.67299998 -0.21799999 15
3.7409999 -0.704 -0.167 19
3.1400001 -0.59399998 -0.391 18
3.2509999 -0.62 -0.352 14
3.3599999 -0.64600003 -0.31 15
3.4760001 -0.67299998 -0.264 15
3.608 -0.704 -0.21699999 16
3.7490001 -0.73799998 -0.16599999 19
3.1400001 -0.62199998 -0.38999999 14
3.2509999 -0.648 -0.35100001 14
3.3640001 -0.676 -0.30899999 12
3.4820001 -0.70499998 -0.264 13
3.6110001 -0.73699999 -0.21600001 16
3.756 -0.773 -0.164 18
3.1459999 -0.65100002 -0.38999999 15
3.2620001 -0.67900002 -0.35100001 13
3.372 -0.70700002 -0.30899999 13
3.487 -0.73699999 -0.26300001 13
3.622 -0.77100003 -0.215 17
3.757 -0.80699998 -0.163 20
3.151 -0.67900002 -0.38999999 15
3.2690001 -0.70899999 -0.35100001 13
3.3800001 -0.73799998 -0.308 14
3.49 -0.76800001 -0.26199999 14
3.6340001 -0.80599999 -0.214 16
3.7609999 -0.84100002 -0.161 18
3.1559999 -0.708 -0.389 15
3.266 -0.73799998 -0.34999999 12
3.3770001 -0.76800001 -0.30700001 12
3.4960001 -0.801 -0.26100001 12
3.6300001 -0.838 -0.212 21
3.7679999 -0.87699997 -0.16 21
3.1600001 -0.73699999 -0.389 16
3.273 -0.76899999 -0.34900001 12
3.388 -0.801 -0.30599999 12
3.5039999 -0.83399999 -0.25999999 15
3.642 -0.87400001 -0.212 17
3.7839999 -0.91500002 -0.15899999 19
3.1619999 -0.76599997 -0.38800001 17
3.2739999 -0.79799998 -0.34799999 13
3.392 -0.83200002 -0.30500001 13
3.5090001 -0.86699998 -0.259 15
3.6440001 -0.90700001 -0.20999999 18
3.7950001 -0.95200002 -0.15700001 20
3.1630001 -0.79500002 -0.38699999 15
3.2839999 -0.82999998 -0.34799999 13
3.391 -0.86299998 -0.30399999 14
3.5139999 -0.89999998 -0.25799999 15
3.658 -0.94400001 -0.20900001 16
3.793 -0.986 -0.155 19
3.1719999 -0.82599998 -0.38699999 18
3.286 -0.86000001 -0.347 16
3.402 -0.89600003 -0.30399999 13
3.523 -0.93400002 -0.257 14
3.6659999 -0.97899997 -0.208 16
3.803 -1.023 -0.154 18
3.174 -0.85500002 -0.38600001 17
3.2909999 -0.89200002 -0.34599999 13
3.4089999 -0.92900002 -0.303 13
3.5309999 -0.96899998 -0.25600001 13
3.6719999 -1.0140001 -0.206 15
3.8150001 -1.061 -0.152 18
0 6.1440001 0 0
0 0 0 0
0 0 0 0
0 0 0 255
3.1849999 -0.88700002 -0.38699999 17
3.2969999 -0.92299998 -0.34599999 12
3.414 -0.96200001 -0.30199999 13
3.5369999 -1.003 -0.255 14
3.675 -1.049 -0.204 16
3.823 -1.099 -0.15000001 18
3.184 -0.91600001 -0.38499999 16
3.2980001 -0.954 -0.345 16
3.4100001 -0.99199998 -0.30000001 14
3.5439999 -1.038 -0.25299999 13
3.6849999 -1.087 -0.20299999 16
3.8280001 -1.137 -0.148 17
3.1919999 -0.94800001 -0.38499999 15
3.3039999 -0.986 -0.34400001 12
3.4200001 -1.027 -0.29899999 14
3.552 -1.073 -0.252 15
3.6889999 -1.122 -0.20100001 15
3.8369999 -1.175 -0.146 18
3.1949999 -0.97799999 -0.384 16
3.309 -1.0190001 -0.34299999 14
3.4300001 -1.062 -0.29899999 15
3.5599999 -1.109 -0.25099999 15
3.6960001 -1.159 -0.199 15
3.849 -1.215 -0.14399999 18
3.1949999 -1.008 -0.38299999 15
3.3150001 -1.051 -0.34200001 15
3.438 -1.097 -0.29800001 14
3.5699999 -1.146 -0.25 14
3.71 -1.198 -0.198 15
