# .PCD v0.7 - Point Cloud Data file format
VERSION 0.7
FIELDS x y z intensity
SIZE 4 4 4 4
TYPE F F F F
COUNT 1 1 1 1
WIDTH 1736
HEIGHT 1
VIEWPOINT 0 0 0 1 0 0 0
POINTS 1736
DATA ascii
6.7820001 2.3099999 1.064 16
7.3439999 2.5120001 1.277 14
7.9889998 2.744 1.525 13
8.6339998 2.98 1.7970001 35
5.9629998 2.049 0.74299997 15
6.349 2.188 0.89700001 17
6.8109999 2.3559999 1.076 17
7.3740001 2.5599999 1.29 14
8.0220003 2.7980001 1.541 14
8.7040005 3.05 1.822 23
5.9780002 2.0840001 0.75099999 18
6.3720002 2.2279999 0.90700001 16
6.8499999 2.4030001 1.09 16
7.402 2.6070001 1.303 14
8.0649996 2.8540001 1.559 14
8.8129997 3.1329999 1.8559999 15
5.9970002 2.1199999 0.75999999 15
6.401 2.27 0.91799998 17
6.8730001 2.4449999 1.102 15
7.4289999 2.6530001 1.317 14
8.1160002 2.9119999 1.5779999 13
8.8990002 3.2090001 1.885 24
6.02 2.1570001 0.76999998 16
6.4260001 2.309 0.92900002 16
6.9190001 2.494 1.117 14
7.473 2.7049999 1.334 14
8.1800003 2.974 1.601 16
8.9390001 3.266 1.905 34
6.0479999 2.194 0.77999997 16
6.46 2.3499999 0.94099998 16
6.96 2.5409999 1.132 14
7.5190001 2.756 1.351 14
8.2650003 3.043 1.628 27
8.9370003 3.306 1.916 34
6.0619998 2.2249999 0.78899997 15
6.4809999 2.3859999 0.95200002 16
7.0009999 2.5869999 1.147 14
7.5479999 2.8 1.3660001 14
8.2729998 3.082 1.64 40
8.9680004 3.358 1.9349999 28
6.092 2.2620001 0.80000001 16
6.52 2.428 0.96600002 16
7.0349998 2.6289999 1.161 13
7.5929999 2.848 1.3839999 14
8.2840004 3.1210001 1.654 39
9.073 3.4360001 1.97 15
6.119 2.296 0.81099999 16
6.5500002 2.4649999 0.97799999 15
7.0679998 2.6689999 1.176 13
7.6360002 2.895 1.401 14
8.302 3.161 1.668 30
9.1750002 3.5109999 2.0050001 14
6.1490002 2.3299999 0.82200003 15
6.5819998 2.5020001 0.991 16
7.1040001 2.7090001 1.191 13
7.677 2.9400001 1.419 13
8.368 3.2190001 1.693 18
9.2340002 3.569 2.03 14
6.1739998 2.3610001 0.833 15
6.6160002 2.5380001 1.0039999 15
7.138 2.7479999 1.205 13
7.723 2.984 1.438 13
8.4829998 3.293 1.727 16
9.3199997 3.6370001 2.063 13
6.2020001 2.3929999 0.84500003 15
6.6539998 2.575 1.0190001 14
7.177 2.786 1.221 13
7.7639999 3.027 1.455 14
8.5649996 3.3540001 1.755 24
9.3940001 3.697 2.0910001 14
6.23 2.4219999 0.85600001 14
6.6890001 2.609 1.0319999 14
7.2090001 2.8210001 1.2359999 13
7.816 3.0710001 1.476 14
8.6110001 3.3989999 1.776 34
9.46 3.7539999 2.119 13
6.2680001 2.4549999 0.86900002 15
6.7309999 2.6440001 1.048 14
7.2480001 2.858 1.252 13
7.8870001 3.122 1.499 20
8.6160002 3.4260001 1.789 44
9.5539999 3.819 2.154 14
0 6.1440001 0 0
0 0 0 0
0 0 0 0
0 0 0 255
6.2950001 2.4820001 0.88099998 14
6.7670002 2.6760001 1.061 15
7.2919998 2.8940001 1.2690001 14
7.9369998 3.1630001 1.5190001 28
8.6529999 3.464 1.808 33
9.6350002 3.8770001 2.1849999 14
6.3270001 2.5090001 0.89300001 15
6.809 2.7090001 1.076 15
7.3270001 2.925 1.285 14
7.9660001 3.1930001 1.535 39
8.6960001 3.5020001 1.829 24
9.7220001 3.9360001 2.2179999 14
6.362 2.5369999 0.90600002 15
6.8390002 2.7349999 1.09 13
7.3639998 2.9560001 1.3 14
7.9949999 3.2219999 1.551 43
8.7849998 3.5569999 1.859 18
9.7779999 3.98 2.244 13
6.3909998 2.5599999 0.917 15
6.8730001 2.7609999 1.103 13
7.4099998 2.9890001 1.318 14
8.0150003 3.2449999 1.5650001 39
8.8719997 3.6099999 1.8890001 15
9.8579998 4.0320001 2.276 13
6.4229999 2.5829999 0.93000001 15
6.9060001 2.786 1.118 13
7.4460001 3.0150001 1.3329999 14
8.0469999 3.2720001 1.581 30
8.9390001 3.652 1.915 15
9.9399996 4.0819998 2.3069999 12
6.454 2.6040001 0.94199997 15
6.9400001 2.809 1.131 13
7.493 3.0439999 1.351 13
8.1079998 3.3080001 1.603 21
9.0010004 3.6900001 1.939 15
10.017 4.1290002 2.3380001 13
6.48 2.622 0.95300001 15
6.9780002 2.832 1.145 12
7.5289998 3.0669999 1.3660001 13
8.1820002 3.3469999 1.628 16
9.0629997 3.7260001 1.964 14
10.106 4.177 2.3710001 12
6.5110002 2.6400001 0.96499997 15
7.0089998 2.8499999 1.158 13
7.5630002 3.0880001 1.381 14
8.2720003 3.392 1.655 16
9.1289997 3.7609999 1.989 14
10.165 4.211 2.398 12
6.5469999 2.658 0.977 13
7.0409999 2.868 1.1720001 13
7.6040001 3.109 1.397 14
8.3389997 3.424 1.678 20
9.1960001 3.7939999 2.0139999 14
10.265 4.2579999 2.4330001 11
6.5739999 2.671 0.98799998 13
7.0739999 2.8829999 1.184 13
7.6440001 3.1270001 1.4119999 14
8.3780003 3.4430001 1.6950001 29
9.2580004 3.823 2.0380001 14
10.346 4.2950001 2.464 11
6.6059999 2.684 1 14
7.1059999 2.8959999 1.197 13
7.6939998 3.148 1.429 15
8.4029999 3.4530001 1.709 34
9.3199997 3.849 2.062 14
10.4 4.3179998 2.4879999 11
6.6329999 2.6930001 1.01 14
7.1370001 2.9070001 1.209 13
7.743 3.1659999 1.446 16
8.434 3.464 1.723 36
9.3760004 3.8699999 2.0829999 15
10.48 4.3499999 2.5179999 11
6.6630001 2.7019999 1.021 14
7.1680002 2.9170001 1.221 13
7.7779999 3.177 1.46 19
8.4879999 3.4820001 1.743 42
9.4309998 3.8889999 2.105 14
10.548 4.3740001 2.5439999 11
6.684 2.7060001 1.03 14
7.197 2.9230001 1.233 14
7.8179998 3.187 1.474 22
8.4949999 3.4790001 1.752 41
9.4829998 3.9030001 2.125 15
10.601 4.3870001 2.5669999 9
6.7119999 2.71 1.04 14
7.2189999 2.924 1.243 13
7.8520002 3.194 1.488 26
8.5200005 3.4809999 1.7640001 42
9.5410004 3.9170001 2.1459999 14
10.682 4.4099998 2.596 10
6.7389998 2.7119999 1.049 14
7.2449999 2.9260001 1.252 14
7.8829999 3.1960001 1.5 29
8.5360003 3.4760001 1.774 37
9.5780001 3.9200001 2.1619999 15
10.741 4.421 2.619 10
0 6.1440001 0 0
0 0 0 0
0 0 0 0
0 0 0 255
6.7639999 2.7119999 1.058 15
7.2680001 2.924 1.262 14
7.908 3.194 1.51 31
8.5629997 3.474 1.786 38
9.6269999 3.925 2.1800001 15
10.814 4.434 2.645 10
6.7800002 2.7060001 1.066 13
7.3010001 2.924 1.273 14
7.9180002 3.184 1.518 35
8.585 3.467 1.796 36
9.6709995 3.9260001 2.1960001 14
10.846 4.428 2.6600001 9
6.8049998 2.7019999 1.074 14
7.3189998 2.9159999 1.28 13
7.947 3.1789999 1.528 34
8.6239996 3.4660001 1.8099999 36
9.7229996 3.927 2.214 15
10.9 4.428 2.6800001 11
6.816 2.691 1.079 14
7.3390002 2.9070001 1.288 14
7.9759998 3.1719999 1.538 36
8.651 3.457 1.8200001 33
9.7370005 3.9100001 2.223 14
10.938 4.4180002 2.6949999 10
6.842 2.684 1.087 15
7.3559999 2.895 1.294 14
8.0010004 3.1619999 1.5470001 38
8.6780005 3.4449999 1.83 35
9.7770004 3.902 2.2360001 13
10.976 4.4050002 2.7090001 10
6.8530002 2.6689999 1.092 14
7.369 2.8800001 1.3 13
8.033 3.152 1.557 31
8.6899996 3.425 1.836 36
9.8079996 3.8859999 2.247 14
11.005 4.3850002 2.721 10
6.869 2.655 1.097 14
7.3870001 2.865 1.306 13
8.0559998 3.1370001 1.564 31
8.7150002 3.4089999 1.845 35
9.823 3.862 2.2539999 14
11.049 4.369 2.7360001 8
6.8779998 2.6359999 1.101 15
7.402 2.8469999 1.311 14
8.066 3.1140001 1.568 28
8.7399998 3.391 1.852 37
9.8450003 3.8380001 2.2620001 14
11.072 4.342 2.744 10
6.8829999 2.615 1.103 14
7.4180002 2.8280001 1.316 14
8.0860004 3.095 1.574 25
8.7740002 3.3729999 1.8609999 38
9.8620005 3.8110001 2.2679999 14
11.095 4.3109999 2.7520001 7
6.8920002 2.5929999 1.1059999 15
7.428 2.8039999 1.319 14
8.0939999 3.0680001 1.577 21
8.7889996 3.3469999 1.8660001 39
9.8719997 3.7780001 2.2709999 15
11.097 4.2709999 2.753 10
6.8990002 2.569 1.108 15
7.4369998 2.779 1.321 14
8.0950003 3.0369999 1.5779999 19
8.8140001 3.322 1.872 39
9.8850002 3.744 2.2750001 15
11.139 4.243 2.7639999 10
6.902 2.5420001 1.109 15
7.4419999 2.75 1.323 14
8.0880003 3.0009999 1.577 16
8.8290005 3.2909999 1.875 37
9.8809996 3.701 2.2739999 15
11.117 4.1880002 2.7579999 9
6.9060001 2.5139999 1.11 15
7.4369998 2.717 1.322 13
8.0780001 2.9630001 1.575 15
8.8520002 3.2609999 1.88 34
9.8920002 3.6630001 2.276 15
11.122 4.1409998 2.7579999 10
6.9039998 2.483 1.11 14
7.4369998 2.684 1.321 14
8.0769997 2.9260001 1.574 14
8.868 3.227 1.882 30
9.8690004 3.609 2.2690001 14
11.116 4.0879998 2.7550001 5
6.8979998 2.4489999 1.108 16
7.4419999 2.651 1.321 14
8.0699997 2.8859999 1.571 14
8.8590002 3.1830001 1.8789999 21
9.868 3.563 2.267 15
11.117 4.0359998 2.753 10
6.8990002 2.4170001 1.107 16
7.4460001 2.6170001 1.321 14
8.0690002 2.8469999 1.5700001 14
8.8529997 3.138 1.876 18
9.8610001 3.5120001 2.263 15
11.093 3.973 2.743 10
0 6.1440001 0 0
0 0 0 0
0 0 0 0
0 0 0 255
6.8930001 2.381 1.105 16
7.4419999 2.579 1.318 14
8.0539999 2.802 1.564 14
8.7869997 3.0699999 1.859 19
9.8369999 3.454 2.2539999 15
11.059 3.905 2.7309999 9
6.8800001 2.3410001 1.101 16
7.441 2.5409999 1.316 14
8.0480003 2.7579999 1.561 14
8.7399998 3.0090001 1.846 27
9.8170004 3.3959999 2.2460001 16
11.059 3.846 2.7260001 10
6.8769999 2.3039999 1.099 16
7.4289999 2.497 1.312 14
8.0410004 2.7130001 1.557 14
8.7189999 2.954 1.8380001 35
9.7919998 3.3340001 2.2360001 16
11.027 3.7750001 2.714 11
6.868 2.2639999 1.095 16
7.4200001 2.454 1.307 14
8.0340004 2.6670001 1.552 14
8.7580004 2.9200001 1.8430001 47
9.7749996 3.2739999 2.227 15
10.999 3.704 2.701 10
6.8559999 2.2219999 1.09 15
7.4130001 2.4100001 1.303 13
8.0229998 2.618 1.546 14
8.7709999 2.8740001 1.841 39
9.7030001 3.1949999 2.2060001 17
10.966 3.6300001 2.687 12
6.849 2.181 1.086 15
7.4039998 2.365 1.298 13
8.0050001 2.566 1.538 13
8.7620001 2.8199999 1.834 32
9.6400003 3.1170001 2.1860001 23
10.939 3.5550001 2.6719999 12
6.829 2.1340001 1.079 14
7.3889999 2.3169999 1.291 15
7.993 2.5150001 1.5319999 13
8.7530003 2.7650001 1.827 19
9.6219997 3.0539999 2.175 34
10.895 3.4760001 2.655 13
6.8260002 2.0929999 1.076 15
7.3699999 2.266 1.284 15
7.9790001 2.4619999 1.524 13
8.7049999 2.697 1.811 16
9.6359997 2.9990001 2.1719999 38
10.824 3.3859999 2.6289999 13
6.8049998 2.0450001 1.068 16
7.355 2.217 1.277 15
7.9629998 2.4089999 1.516 13
8.6669998 2.632 1.798 15
9.6459999 2.9430001 2.1670001 34
10.792 3.3080001 2.6140001 13
6.79 1.999 1.062 15
7.3439999 2.168 1.27 15
7.9349999 2.3510001 1.506 14
8.6540003 2.5739999 1.789 15
9.6219997 2.8740001 2.154 22
10.709 3.2149999 2.585 14
6.776 1.952 1.056 15
7.3210001 2.115 1.261 16
7.9190001 2.2950001 1.497 14
8.6090002 2.506 1.773 15
9.4940004 2.7739999 2.118 20
10.668 3.1329999 2.566 14
6.77 1.9069999 1.05 15
7.3010001 2.063 1.253 17
7.9070001 2.2420001 1.489 14
8.5869999 2.444 1.762 15
9.4350004 2.6960001 2.098 30
10.611 3.046 2.543 14
6.75 1.859 1.0420001 16
7.276 2.0079999 1.243 16
7.875 2.181 1.477 15
8.5600004 2.3789999 1.75 15
0 0 0 0
10.537 2.9549999 2.516 15
6.7360001 1.811 1.035 16
7.256 1.956 1.234 15
7.8509998 2.1229999 1.466 14
8.5279999 2.3139999 1.7359999 15
9.4560003 2.576 2.086 36
10.414 2.8499999 2.477 20
6.7140002 1.76 1.027 15
7.2280002 1.9 1.224 16
7.8299999 2.0650001 1.456 15
8.5010004 2.25 1.723 15
9.427 2.5039999 2.0710001 23
10.346 2.76 2.451 31
6.7010002 1.712 1.02 16
7.21 1.847 1.215 16
7.8000002 2.003 1.443 15
8.4709997 2.1830001 1.71 15
9.3459997 2.418 2.0450001 16
10.369 2.694 2.4460001 41
0 6.1440001 0 0
0 0 0 0
0 0 0 0
0 0 0 255
6.677 1.661 1.011 16
7.1859999 1.791 1.205 16
7.77 1.942 1.431 18
8.4320002 2.115 1.694 15
9.3009996 2.3410001 2.026 15
10.377 2.6229999 2.438 33
6.6560001 1.609 1.002 16
7.1570001 1.735 1.194 16
7.7399998 1.88 1.419 15
8.4029999 2.0480001 1.6799999 16
9.2639999 2.266 2.0090001 16
10.273 2.523 2.4030001 22
6.6539998 1.563 0.99699998 16
7.1300001 1.678 1.184 16
7.7150002 1.8200001 1.408 15
8.3690004 1.9809999 1.666 17
9.2150002 2.188 1.989 15
10.12 2.4130001 2.3570001 31
6.625 1.5089999 0.98699999 16
7.1090002 1.623 1.174 17
7.6810002 1.758 1.395 16
8.3380003 1.914 1.652 17
9.1709995 2.112 1.971 15
10.125 2.3410001 2.348 39
6.6009998 1.4579999 0.97799999 16
7.0819998 1.567 1.164 17
7.651 1.696 1.382 16
8.3050003 1.847 1.638 17
9.132 2.0369999 1.954 16
10.153 2.273 2.3440001 37
6.6100001 1.413 0.97399998 18
7.0560002 1.511 1.154 17
7.6230001 1.636 1.37 17
8.2679996 1.778 1.623 16
9.0979996 1.962 1.937 16
10.091 2.1849999 2.319 17
6.5679998 1.3559999 0.96200001 16
7.0279999 1.454 1.143 15
7.5929999 1.574 1.358 15
8.2349997 1.711 1.608 15
9.0439997 1.8839999 1.9170001 15
9.9799995 2.086 2.283 14
6.552 1.306 0.954 17
7.0089998 1.399 1.133 16
7.5619998 1.512 1.346 15
8.2040005 1.6440001 1.595 17
9.0050001 1.809 1.9 15
9.9320002 2.0020001 2.2620001 14
6.52 1.252 0.94400001 16
6.9860001 1.3430001 1.124 17
7.5339999 1.45 1.334 16
8.1719999 1.577 1.581 17
8.9729996 1.735 1.8839999 15
9.8730001 1.915 2.2379999 14
6.5209999 1.204 0.93900001 15
6.961 1.2869999 1.114 16
7.5079999 1.39 1.322 16
8.1359997 1.5089999 1.566 16
8.9449997 1.663 1.869 15
9.8179998 1.83 2.2160001 14
6.507 1.154 0.93199998 15
6.9380002 1.2309999 1.104 16
7.48 1.329 1.311 16
8.0959997 1.441 1.551 15
8.8979998 1.5880001 1.851 15
9.7580004 1.745 2.1919999 14
6.4640002 1.099 0.92000002 16
6.927 1.178 1.096 17
7.4569998 1.2690001 1.3 16
8.0670004 1.375 1.538 15
8.8590002 1.513 1.834 15
9.7259998 1.665 2.1760001 14
6.4510002 1.049 0.91299999 15
6.901 1.122 1.086 17
7.4219999 1.2079999 1.288 16
8.0360003 1.3099999 1.525 16
8.8310003 1.442 1.8200001 16
9.6780005 1.5829999 2.1559999 14
6.4369998 0.99900001 0.90600002 17
6.882 1.068 1.0779999 16
7.401 1.149 1.278 16
8.0019999 1.244 1.511 17
8.7880001 1.367 1.803 16
9.6459999 1.5039999 2.1389999 14
6.434 0.94999999 0.89999998 17
6.868 1.0140001 1.0700001 16
7.3730001 1.089 1.266 16
7.9710002 1.177 1.498 17
8.7469997 1.294 1.7869999 15
9.6049995 1.4220001 2.1210001 14
6.4089999 0.898 0.89200002 17
6.8470001 0.95899999 1.061 16
7.3579998 1.03 1.258 16
7.948 1.113 1.487 17
8.71 1.22 1.771 15
9.5310001 1.337 2.096 15
0 6.1440001 0 0
0 0 0 0
0 0 0 0
0 0 0 255
6.3870001 0.847 0.884 16
6.8270001 0.90399998 1.052 16
7.3280001 0.97000003 1.2460001 16
7.915 1.048 1.474 17
8.6759996 1.149 1.757 17
9.5080004 1.26 2.082 15
6.375 0.79699999 0.87699997 16
6.8119998 0.85000002 1.045 16
7.3080001 0.91100001 1.237 16
7.8800001 0.98199999 1.461 18
8.6370001 1.077 1.742 17
9.4709997 1.181 2.066 15
6.3600001 0.74699998 0.87099999 16
6.7930002 0.796 1.0369999 15
7.2849998 0.85299999 1.228 16
7.8579998 0.91900003 1.451 17
8.6009998 1.005 1.728 17
9.4099998 1.099 2.0439999 15
6.3499999 0.69800001 0.86500001 17
6.7820001 0.74299997 1.03 16
7.2649999 0.79400003 1.219 17
7.8400002 0.85600001 1.441 18
8.5790005 0.935 1.716 17
9.3859997 1.022 2.0309999 15
6.3460002 0.648 0.86000001 17
6.7659998 0.68900001 1.023 16
7.25 0.736 1.211 17
7.8189998 0.792 1.432 19
8.5410004 0.86400002 1.702 17
9.3339996 0.94300002 2.013 15
6.322 0.597 0.85299999 14
6.7509999 0.63499999 1.016 16
7.2309999 0.67799997 1.2029999 17
7.7919998 0.72899997 1.421 19
8.5109997 0.79400003 1.6900001 18
9.3009996 0.86500001 1.998 15
6.3130002 0.54799998 0.84799999 15
6.7309999 0.58099997 1.0089999 15
7.2179999 0.62099999 1.196 16
7.777 0.66600001 1.413 18
8.4879999 0.72399998 1.679 18
9.2600002 0.787 1.983 15
6.2950001 0.49700001 0.84100002 16
6.7220001 0.528 1.003 16
7.204 0.56300002 1.189 17
7.757 0.60399997 1.404 18
8.4569998 0.65499997 1.6670001 18
9.2309999 0.71200001 1.97 15
6.2880001 0.44800001 0.83700001 15
6.6999998 0.47400001 0.99599999 14
7.1869998 0.505 1.182 16
7.7389998 0.54100001 1.396 16
8.4370003 0.58600003 1.658 17
9.1969995 0.63599998 1.957 14
6.283 0.39899999 0.83200002 15
6.7010002 0.421 0.99199998 14
7.1729999 0.44800001 1.175 16
7.724 0.479 1.3890001 16
8.4329996 0.51800001 1.652 18
9.1879997 0.56 1.949 14
6.2750001 0.34900001 0.82800001 15
0 0 0 0
7.1570001 0.38999999 1.169 15
7.711 0.41600001 1.382 16
8.4029999 0.449 1.641 17
9.1569996 0.48500001 1.937 14
6.2600002 0.29899999 0.82300001 15
6.6789999 0.315 0.98199999 14
7.1440001 0.333 1.163 15
7.7030001 0.354 1.377 16
8.3859997 0.38100001 1.633 17
9.1429996 0.40900001 1.929 15
6.2550001 0.25 0.81900001 16
6.6350002 0.26100001 0.97299999 15
7.1269999 0.27500001 1.1569999 16
7.6869998 0.292 1.37 17
8.3719997 0.31200001 1.626 17
9.1339998 0.33500001 1.9220001 14
6.2420001 0.2 0.815 15
6.6550002 0.20900001 0.97299999 16
7.1230001 0.219 1.153 16
7.6789999 0.23 1.365 16
8.3649998 0.245 1.6210001 17
9.1090002 0.25999999 1.913 16
6.243 0.15099999 0.81300002 16
6.6440001 0.156 0.96799999 17
7.1170001 0.161 1.149 15
7.6589999 0.168 1.358 17
8.3570004 0.177 1.6160001 17
9.1029997 0.185 1.908 17
6.2340002 0.101 0.80900002 16
6.6490002 0.103 0.96700001 16
7.1110001 0.104 1.146 16
7.6550002 0.106 1.355 16
8.3509998 0.109 1.612 18
9.092 0.112 1.902 16
0 6.1440001 0 0
0 0 0 0
0 0 0 0
0 0 0 255
6.2360001 0.052000001 0.80800003 16
6.638 0.050000001 0.963 16
7.1040001 0.048 1.142 16
7.6469998 0.045000002 1.351 16
8.3479996 0.041999999 1.609 18
9.0819998 0.037999999 1.897 14
6.2309999 0.003 0.80500001 15
6.6459999 -0.001 0.96200001 14
7.0970001 -0.0080000004 1.1390001 16
7.6370001 -0.016000001 1.347 16
8.3380003 -0.025 1.604 18
9.0760002 -0.035 1.893 13
6.2329998 -0.045000002 0.80400002 16
6.6399999 -0.055 0.95999998 16
7.0939999 -0.064999998 1.137 16
7.6399999 -0.077 1.346 16
8.3369999 -0.093000002 1.602 17
9.0799999 -0.11 1.892 14
6.2350001 -0.094999999 0.80299997 15
6.638 -0.108 0.958 16
7.0999999 -0.122 1.136 15
7.6389999 -0.139 1.344 17
8.3389997 -0.161 1.601 16
9.0900002 -0.185 1.892 16
6.2389998 -0.145 0.80199999 16
6.6350002 -0.161 0.95599997 17
7.0999999 -0.18000001 1.135 16
7.6399999 -0.20200001 1.3430001 16
8.3380003 -0.229 1.599 16
9.0860004 -0.25999999 1.89 13
6.2389998 -0.19499999 0.801 15
6.6329999 -0.214 0.95499998 16
7.1009998 -0.237 1.135 16
7.6469998 -0.264 1.3430001 17
8.3430004 -0.29699999 1.599 16
9.0950003 -0.33500001 1.891 13
6.2389998 -0.244 0.801 16
6.6500001 -0.26800001 0.95700002 16
7.1040001 -0.294 1.1339999 16
7.651 -0.32600001 1.3430001 17
8.3459997 -0.366 1.599 17
9.0909996 -0.40900001 1.89 16
6.2389998 -0.29499999 0.80000001 15
6.658 -0.322 0.958 14
7.1110001 -0.352 1.135 16
7.6560001 -0.389 1.344 18
8.3549995 -0.435 1.601 17
9.1029997 -0.48500001 1.892 16
6.2199998 -0.34299999 0.79799998 24
6.664 -0.37599999 0.95899999 14
7.119 -0.41100001 1.136 15
7.6570001 -0.45199999 1.344 19
8.3669996 -0.505 1.604 17
9.1169996 -0.56199998 1.895 14
6.2389998 -0.39500001 0.80000001 38
6.6630001 -0.43000001 0.95899999 16
7.1230001 -0.46900001 1.137 15
7.6669998 -0.51499999 1.347 18
8.3839998 -0.57499999 1.607 17
9.1269999 -0.639 1.898 16
6.2480001 -0.44600001 0.80199999 42
6.6810002 -0.486 0.96200001 15
7.1290002 -0.528 1.1390001 15
7.6869998 -0.57999998 1.351 18
8.3929996 -0.64499998 1.61 16
9.1499996 -0.71700001 1.904 16
6.2529998 -0.49700001 0.80299997 40
6.6609998 -0.53899997 0.95999998 24
7.1420002 -0.588 1.142 16
7.6989999 -0.64399999 1.354 18
8.4069996 -0.71600002 1.614 16
9.1759996 -0.796 1.911 13
6.2820001 -0.551 0.80800003 17
6.671 -0.59500003 0.96200001 32
7.1570001 -0.648 1.146 15
7.724 -0.71100003 1.36 17
8.4329996 -0.78899997 1.6210001 17
9.2080002 -0.87599999 1.92 13
6.289 -0.60299999 0.81 16
6.6810002 -0.64999998 0.96499997 30
7.1750002 -0.708 1.15 15
7.737 -0.77600002 1.364 17
8.4519997 -0.861 1.627 17
9.2270002 -0.95599997 1.927 13
6.2979999 -0.65499997 0.81199998 15
6.7189999 -0.708 0.972 21
7.1950002 -0.76899999 1.155 15
7.7529998 -0.84200001 1.369 16
8.4659996 -0.93400002 1.632 16
9.25 -1.036 1.9349999 14
6.3140001 -0.708 0.81599998 15
6.7309999 -0.76499999 0.97600001 14
7.211 -0.83099997 1.16 15
7.7859998 -0.91100001 1.378 16
8.5019999 -1.0089999 1.642 15
9.2819996 -1.118 1.9450001 14
0 6.1440001 0 0
0 0 0 0
0 0 0 0
0 0 0 255
6.323 -0.76099998 0.81900001 16
0 0 0 0
7.2280002 -0.89300001 1.165 15
7.8070002 -0.97899997 1.385 16
8.5319996 -1.084 1.652 13
9.3190002 -1.202 1.957 13
6.3449998 -0.81599998 0.824 16
6.7670002 -0.88200003 0.986 14
7.2550001 -0.958 1.173 14
7.835 -1.048 1.393 16
8.566 -1.161 1.6619999 14
9.3640003 -1.2869999 1.971 13
6.3540001 -0.87 0.82800001 15
6.7810001 -0.93900001 0.991 14
7.2750001 -1.02 1.179 15
7.8600001 -1.117 1.401 15
8.5970001 -1.238 1.673 15
9.4230003 -1.376 1.989 13
6.3639998 -0.92299998 0.83200002 14
6.803 -0.99900001 0.99699998 15
7.302 -1.086 1.187 15
7.8889999 -1.188 1.41 16
8.6470003 -1.319 1.687 13
9.46 -1.462 2.0020001 13
6.4130001 -0.98400003 0.84100002 13
6.822 -1.058 1.003 14
7.329 -1.151 1.1950001 14
7.9180002 -1.258 1.42 15
8.6569996 -1.393 1.694 26
9.5109997 -1.551 2.0190001 13
6.4330001 -1.04 0.847 13
6.8509998 -1.12 1.011 14
7.3559999 -1.217 1.204 15
7.954 -1.331 1.431 15
8.7049999 -1.475 1.709 30
9.5690002 -1.642 2.0380001 13
6.448 -1.095 0.852 14
6.8670001 -1.1799999 1.017 14
7.3930001 -1.284 1.214 14
7.9879999 -1.404 1.442 15
8.7770004 -1.562 1.729 25
9.6099997 -1.732 2.0539999 14
6.4619999 -1.152 0.85799998 12
6.8990002 -1.243 1.026 14
7.421 -1.352 1.224 13
8.026 -1.479 1.455 15
8.8190002 -1.6440001 1.744 14
9.6459999 -1.8200001 2.069 25
6.4770002 -1.2079999 0.86400002 12
6.9320002 -1.306 1.035 13
7.4559999 -1.42 1.235 13
8.0719995 -1.5549999 1.469 15
8.8660002 -1.728 1.76 13
9.7320004 -1.92 2.095 27
6.5 -1.266 0.87099999 13
6.9499998 -1.368 1.043 13
7.493 -1.4910001 1.2460001 15
8.1230001 -1.6339999 1.484 13
8.9239998 -1.816 1.779 13
9.835 -2.027 2.1259999 19
6.5289998 -1.327 0.87900001 12
6.9720001 -1.431 1.051 13
7.5289998 -1.562 1.258 12
8.165 -1.7130001 1.499 13
8.9759998 -1.904 1.7970001 13
9.8830004 -2.1210001 2.145 13
6.5500002 -1.385 0.88700002 13
6.9980001 -1.495 1.0599999 13
7.5430002 -1.6289999 1.266 11
8.2049999 -1.791 1.513 13
9.0290003 -1.993 1.816 12
9.9619999 -2.224 2.1719999 12
6.5799999 -1.447 0.89600003 13
7.0349998 -1.563 1.072 13
7.5819998 -1.701 1.279 15
8.25 -1.8710001 1.528 16
9.1000004 -2.0869999 1.839 16
10.034 -2.3280001 2.197 15
6.599 -1.507 0.90399998 14
7.0640001 -1.628 1.082 15
7.631 -1.777 1.294 14
8.2860003 -1.95 1.543 14
9.1520004 -2.177 1.858 15
10.107 -2.4319999 2.224 15
6.6479998 -1.573 0.91600001 15
7.099 -1.696 1.0930001 15
7.6680002 -1.851 1.307 16
8.3409996 -2.0339999 1.561 14
9.2209997 -2.273 1.881 16
10.2 -2.5439999 2.2550001 15
6.6690001 -1.635 0.92400002 15
7.132 -1.765 1.105 16
7.704 -1.925 1.321 15
8.3959999 -2.1199999 1.58 15
9.2910004 -2.372 1.906 15
10.306 -2.6600001 2.29 16
0 6.1440001 0 0
0 0 0 0
0 0 0 0
0 0 0 255
6.6960001 -1.698 0.93400002 15
7.1799998 -1.8380001 1.119 16
7.7540002 -2.0050001 1.337 16
8.4560003 -2.2090001 1.6 15
9.3699999 -2.473 1.932 15
10.387 -2.773 2.3199999 16
6.7220001 -1.762 0.94400001 15
7.2160001 -1.909 1.131 16
7.8039999 -2.0840001 1.353 15
8.4989996 -2.293 1.617 17
9.4320002 -2.572 1.955 15
10.465 -2.885 2.3499999 14
6.7620001 -1.83 0.95499998 16
7.2579999 -1.982 1.145 15
7.8449998 -2.1619999 1.368 15
8.5799999 -2.3889999 1.642 15
9.5139999 -2.677 1.983 15
10.579 -3.0090001 2.388 13
6.7950001 -1.896 0.96600002 15
7.3049998 -2.0569999 1.16 15
7.9050002 -2.247 1.387 14
8.6569996 -2.484 1.666 14
9.5880003 -2.7809999 2.01 16
10.68 -3.131 2.424 13
6.8309999 -1.9630001 0.97799999 15
7.3530002 -2.132 1.175 15
7.9530001 -2.329 1.405 15
8.7320004 -2.582 1.691 15
9.677 -2.891 2.04 15
10.793 -3.2590001 2.464 15
6.8610001 -2.03 0.98900002 16
7.3909998 -2.2060001 1.189 15
8.0089998 -2.4130001 1.423 14
8.7989998 -2.6760001 1.714 14
9.7679996 -3.003 2.072 15
10.899 -3.3859999 2.5020001 14
6.9070001 -2.102 1.003 16
7.4439998 -2.2850001 1.205 16
8.0740004 -2.5020001 1.444 14
8.8590002 -2.7720001 1.7359999 14
9.8660002 -3.119 2.105 15
11.053 -3.5320001 2.553 12
6.9419999 -2.1719999 1.016 15
7.487 -2.3629999 1.221 15
8.1379995 -2.592 1.465 15
8.9359999 -2.8740001 1.762 14
9.9630003 -3.2360001 2.138 14
11.153 -3.661 2.5910001 12
6.9840002 -2.244 1.029 13
7.5349998 -2.4419999 1.237 14
8.1969995 -2.681 1.485 14
9.0279999 -2.9820001 1.7920001 14
10.056 -3.355 2.1719999 15
11.288 -3.8050001 2.638 9
7.0289998 -2.319 1.043 14
7.5910001 -2.5250001 1.2539999 14
8.2779999 -2.779 1.51 14
9.1079998 -3.0869999 1.819 14
10.157 -3.4779999 2.207 13
11.425 -3.9530001 2.6860001 10
7.0799999 -2.3959999 1.059 13
7.6370001 -2.6070001 1.271 14
8.335 -2.8710001 1.53 13
9.1809998 -3.1919999 1.845 14
10.262 -3.6040001 2.244 13
11.568 -4.105 2.7360001 10
7.1269999 -2.4719999 1.073 14
7.6939998 -2.6919999 1.29 13
8.4049997 -2.9679999 1.554 14
9.2639999 -3.302 1.874 14
10.367 -3.7320001 2.2809999 12
11.733 -4.2670002 2.7920001 11
7.1719999 -2.55 1.0880001 13
7.7529998 -2.779 1.309 13
8.4849997 -3.069 1.579 13
9.3500004 -3.414 1.904 13
10.49 -3.868 2.322 12
11.881 -4.427 2.845 10
7.223 -2.6289999 1.104 12
7.8119998 -2.868 1.3279999 12
8.5559998 -3.168 1.603 13
9.4429998 -3.529 1.9349999 12
10.616 -4.007 2.365 10
12.025 -4.585 2.8970001 11
7.2659998 -2.7060001 1.119 14
7.8829999 -2.961 1.349 12
8.6289997 -3.2690001 1.627 12
9.5349998 -3.6459999 1.967 15
10.734 -4.145 2.4070001 15
12.216 -4.7649999 2.961 13
7.3049998 -2.7820001 1.133 15
7.9310002 -3.046 1.367 14
8.7069998 -3.3729999 1.653 14
9.6370001 -3.7679999 2.0009999 14
10.854 -4.2849998 2.4489999 11
12.393 -4.9439998 3.023 13
0 6.1440001 0 0
0 0 0 0
0 0 0 0
0 0 0 255
7.362 -2.8670001 1.151 13
7.9990001 -3.1400001 1.388 14
8.7720003 -3.473 1.676 13
9.7189999 -3.8829999 2.03 13
10.991 -4.4349999 2.4949999 11
12.544 -5.1129999 3.0780001 14
7.4109998 -2.948 1.1670001 14
8.0600004 -3.233 1.409 15
8.8649998 -3.586 1.706 14
9.8129997 -4.006 2.063 13
11.101 -4.5749998 2.5350001 11
12.742 -5.3049998 3.145 14
7.4580002 -3.03 1.183 14
8.132 -3.3299999 1.431 14
8.9429998 -3.6930001 1.732 13
9.9180002 -4.1329999 2.099 12
11.243 -4.7309999 2.5840001 12
12.93 -5.4949999 3.211 15
7.5089998 -3.1129999 1.199 14
8.1949997 -3.424 1.452 15
9.0120001 -3.7980001 1.757 13
10.02 -4.2610002 2.1340001 11
11.374 -4.8829999 2.6300001 12
13.139 -5.6989999 3.283 14
7.5739999 -3.2030001 1.2180001 13
8.2620001 -3.5220001 1.474 14
9.085 -3.9059999 1.7819999 14
10.102 -4.382 2.164 9
11.515 -5.0419998 2.6789999 12
13.342 -5.901 3.3529999 16
7.6259999 -3.2880001 1.235 14
8.3330002 -3.6210001 1.4960001 15
9.1680002 -4.0180001 1.8099999 13
10.197 -4.5089998 2.1989999 10
11.662 -5.2059999 2.7290001 13
13.518 -6.0949998 3.4170001 14
7.6849999 -3.3770001 1.253 13
8.3920002 -3.717 1.517 14
9.2559996 -4.1339998 1.839 13
10.301 -4.6420002 2.234 10
11.816 -5.3740001 2.7809999 13
13.73 -6.3070002 3.49 15
7.7290001 -3.46 1.2690001 14
8.467 -3.8199999 1.54 14
9.3219995 -4.2399998 1.864 14
10.417 -4.7800002 2.273 10
11.966 -5.5419998 2.8329999 14
13.927 -6.5139999 3.5599999 16
7.7870002 -3.549 1.2869999 14
8.5290003 -3.9170001 1.561 14
9.4029999 -4.3540001 1.891 14
10.523 -4.915 2.309 10
12.121 -5.7140002 2.885 14
14.17 -6.7459998 3.642 18
7.8449998 -3.638 1.3049999 13
8.5909996 -4.0149999 1.582 14
9.4709997 -4.4619999 1.915 11
10.622 -5.0469999 2.3440001 11
12.291 -5.895 2.9419999 15
14.391 -6.9689999 3.7179999 17
7.8870001 -3.721 1.3200001 13
8.665 -4.118 1.605 14
9.5629997 -4.5819998 1.9450001 11
10.726 -5.1830001 2.3800001 11
12.468 -6.0799999 3 15
14.6 -7.1900001 3.793 16
7.941 -3.809 1.337 13
8.724 -4.2150002 1.625 13
9.6260004 -4.6880002 1.969 10
10.82 -5.3140001 2.4130001 11
12.582 -6.237 3.043 16
14.848 -7.4310002 3.8759999 16
8.0080004 -3.9030001 1.3559999 13
8.7819996 -4.3119998 1.645 13
9.6999998 -4.8000002 1.995 9
10.917 -5.4489999 2.448 11
12.728 -6.4099998 3.095 16
15.184 -7.7220001 3.984 17
8.0509996 -3.987 1.3710001 13
8.8500004 -4.414 1.6670001 12
9.7840004 -4.9180002 2.0220001 9
11.025 -5.5890002 2.484 12
12.877 -6.5869999 3.145 13
15.392 -7.948 4.0570002 16
8.1079998 -4.0760002 1.388 13
8.8999996 -4.507 1.6849999 13
9.8669996 -5.0359998 2.049 9
11.136 -5.7309999 2.5209999 12
13.034 -6.7670002 3.198 15
15.638 -8.1969995 4.1409998 18
8.158 -4.1630001 1.404 13
8.9639997 -4.6059999 1.705 12
9.941 -5.1479998 2.0739999 9
11.238 -5.8670001 2.556 12
13.192 -6.948 3.2520001 14
15.865 -8.4359999 4.2189999 15
0 6.1440001 0 0
0 0 0 0
0 0 0 0
0 0 0 255
8.2089996 -4.25 1.419 13
9.0179996 -4.7010002 1.723 12
10.009 -5.257 2.098 9
11.339 -6.0050001 2.5899999 13
13.312 -7.1110001 3.296 15
16.09 -8.6759996 4.296 15
8.2580004 -4.335 1.434 16
9.0749998 -4.796 1.742 15
10.075 -5.3649998 2.1199999 11
11.452 -6.1469998 2.6259999 15
13.48 -7.2989998 3.3499999 17
16.41 -8.967 4.3990002 23
8.29 -4.4109998 1.446 14
9.1239996 -4.888 1.758 13
10.142 -5.473 2.1429999 11
11.556 -6.2849998 2.6600001 15
13.643 -7.4840002 3.404 16
16.533001 -9.1520004 4.448 30
8.335 -4.4920001 1.459 13
9.1590004 -4.9699998 1.772 13
10.215 -5.5830002 2.1670001 11
11.648 -6.415 2.691 13
13.766 -7.6469998 3.4460001 16
16.441999 -9.2159996 4.4390001 18
8.3690004 -4.5669999 1.471 13
9.21 -5.059 1.788 14
10.273 -5.6830001 2.1860001 12
11.753 -6.553 2.724 14
13.931 -7.8319998 3.4979999 20
14.824 -8.4090004 4.0149999 18
8.4219999 -4.652 1.485 15
9.2709999 -5.1539998 1.806 13
10.338 -5.7880001 2.207 12
11.831 -6.6739998 2.7509999 14
14.199 -8.0760002 3.576 24
14.723 -8.4490004 3.9990001 75
8.4560003 -4.7259998 1.4960001 14
9.3249998 -5.244 1.821 12
10.385 -5.881 2.224 12
11.924 -6.803 2.78 14
14.342 -8.2480001 3.622 25
14.688 -8.5220003 4 78
8.4790001 -4.7909999 1.5039999 14
9.3479996 -5.3150001 1.831 13
10.433 -5.9720001 2.2390001 13
12.008 -6.9239998 2.8069999 16
14.411 -8.3760004 3.648 25
14.647 -8.5860004 3.9979999 69
8.5150003 -4.8629999 1.5140001 14
9.3789997 -5.388 1.841 11
10.483 -6.0630002 2.2550001 12
12.068 -7.0289998 2.8269999 16
14.553 -8.5439997 3.6919999 26
14.624 -8.658 4 72
8.5349998 -4.9229999 1.521 14
9.4139996 -5.4619999 1.851 12
10.523 -6.145 2.2679999 13
12.136 -7.1370001 2.848 16
14.518 -8.6049995 3.6900001 23
14.59 -8.7189999 3.9979999 67
8.5450001 -4.9759998 1.525 13
9.4320002 -5.5240002 1.858 12
10.546 -6.2160001 2.277 13
12.191 -7.2360001 2.865 17
14.406 -8.6149998 3.6670001 18
14.574 -8.7869997 3.9990001 56
8.566 -5.0339999 1.531 14
9.4429998 -5.5809999 1.862 11
10.595 -6.3000002 2.289 12
12.222 -7.3169999 2.8759999 15
14.434 -8.7049999 3.678 21
0 0 0 0
8.5880003 -5.0900002 1.536 15
9.4569998 -5.6360002 1.867 10
10.605 -6.3579998 2.2939999 13
12.251 -7.3930001 2.885 14
14.394 -8.75 3.671 16
0 0 0 0
8.5830002 -5.1279998 1.536 14
9.4750004 -5.691 1.8710001 10
10.642 -6.4289999 2.303 13
12.264 -7.4569998 2.8900001 14
14.173 -8.6789999 3.6170001 13
14.83 -9.151 4.0799999 22
8.6090002 -5.1820002 1.541 13
9.4849997 -5.7389998 1.874 10
10.654 -6.4819999 2.306 13
12.308 -7.5359998 2.901 15
13.964 -8.6099997 3.5639999 8
14.603 -9.0719995 4.0190001 23
8.6099997 -5.2189999 1.54 13
9.4949999 -5.7839999 1.875 10
10.66 -6.5300002 2.3080001 14
12.321 -7.5929999 2.904 15
13.843 -8.5889997 3.5339999 9
14.51 -9.0690002 3.9920001 2
0 6.1440001 0 0
0 0 0 0
0 0 0 0
0 0 0 255
8.6169996 -5.257 1.541 13
9.4899998 -5.8169999 1.874 10
10.676 -6.579 2.309 14
12.302 -7.6259999 2.898 17
13.746 -8.5780001 3.506 9
15.88 -9.9809999 4.3670001 28
8.6099997 -5.2839999 1.538 15
9.4969997 -5.855 1.873 11
10.662 -6.6069999 2.3039999 14
12.283 -7.6560001 2.891 17
13.675 -8.5780001 3.487 9
15.823 -9.9949999 4.348 29
8.599 -5.3060002 1.534 13
9.4779997 -5.8740001 1.867 10
10.658 -6.638 2.3010001 14
12.27 -7.684 2.8840001 19
13.599 -8.5690002 3.4630001 13
15.809 -10.029 4.3400002 30
8.5979996 -5.3299999 1.531 16
9.4700003 -5.895 1.862 11
10.642 -6.6570001 2.2939999 15
12.241 -7.698 2.8729999 20
13.564 -8.5810003 3.45 14
15.885 -10.115 4.355 27
8.5790005 -5.3410001 1.524 15
9.4630003 -5.915 1.857 11
10.606 -6.6599998 2.2809999 15
12.188 -7.6919999 2.8559999 19
13.508 -8.5740004 3.4289999 14
15.892 -10.153 4.349 27
8.5679998 -5.3530002 1.518 15
9.434 -5.9169998 1.847 11
10.587 -6.6690001 2.2720001 15
12.164 -7.6999998 2.8440001 20
13.473 -8.5760002 3.4130001 14
15.834 -10.142 4.3260002 30
8.5530005 -5.3610001 1.511 15
9.4139996 -5.921 1.8380001 11
10.557 -6.6680002 2.2609999 13
12.123 -7.6929998 2.8280001 18
13.443 -8.5760002 3.3970001 15
15.798 -10.138 4.3049998 30
8.5190001 -5.3530002 1.5 14
9.3859997 -5.9159999 1.827 11
10.511 -6.652 2.244 14
12.059 -7.6659999 2.806 20
13.431 -8.5830002 3.3859999 13
15.742 -10.117 4.2800002 31
8.4980001 -5.349 1.4910001 15
9.3529997 -5.9060001 1.814 11
10.466 -6.6339998 2.2279999 14
12.003 -7.6399999 2.7839999 18
13.408 -8.5760002 3.3699999 13
15.644 -10.062 4.2410002 31
8.474 -5.342 1.4809999 14
9.3120003 -5.8870001 1.8 11
10.419 -6.6090002 2.21 14
11.944 -7.6069999 2.7609999 19
13.416 -8.585 3.3610001 13
15.507 -9.9759998 4.1900001 30
8.448 -5.329 1.47 14
9.2740002 -5.8660002 1.785 11
10.366 -6.5770001 2.1900001 12
11.866 -7.559 2.733 16
13.407 -8.5780001 3.3469999 13
15.392 -9.8979998 4.1459999 30
8.4060001 -5.303 1.457 14
9.2299995 -5.8369999 1.7690001 10
10.307 -6.5380001 2.1689999 13
11.789 -7.506 2.7049999 19
13.422 -8.5819998 3.3380001 13
15.249 -9.7959995 4.092 30
8.3690004 -5.2779999 1.442 14
9.1800003 -5.802 1.752 6
10.252 -6.4970002 2.148 13
11.723 -7.4549999 2.678 19
13.423 -8.5699997 3.326 13
0 0 0 0
8.3380003 -5.2519999 1.4299999 15
9.1339998 -5.7659998 1.735 11
10.195 -6.4510002 2.1259999 12
11.64 -7.3899999 2.648 18
13.433 -8.5600004 3.313 14
14.929 -9.5550003 3.974 29
8.3030005 -5.2220001 1.416 15
9.099 -5.7319999 1.719 12
10.117 -6.3889999 2.0999999 13
11.558 -7.3200002 2.6170001 18
13.397 -8.5150003 3.2909999 16
14.715 -9.3909998 3.9000001 27
8.2609997 -5.184 1.401 15
9.0559998 -5.6919999 1.702 12
10.052 -6.3309999 2.075 13
11.459 -7.237 2.5829999 18
13.362 -8.4659996 3.267 17
0 0 0 0
0 6.1440001 0 0
0 0 0 0
0 0 0 0
0 0 0 255
8.2110004 -5.1389999 1.385 15
9.0019999 -5.6409998 1.682 14
9.9809999 -6.2659998 2.05 13
11.339 -7.1360002 2.5420001 16
13.287 -8.3879995 3.233 23
14.128 -8.9519997 3.71 25
8.1780005 -5.1009998 1.37 16
8.9499998 -5.5879998 1.663 14
9.8999996 -6.191 2.023 12
11.235 -7.0430002 2.507 17
13.175 -8.2819996 3.1889999 23
13.99 -8.823 3.6559999 24
8.1099997 -5.039 1.351 14
8.882 -5.5219998 1.641 13
9.8240004 -6.1170001 1.9960001 12
11.12 -6.9380002 2.467 16
13.045 -8.1610003 3.142 22
13.931 -8.7419996 3.6240001 18
8.059 -4.9840002 1.3329999 15
8.8290005 -5.4629998 1.6210001 14
9.7550001 -6.0440001 1.971 11
10.992 -6.822 2.4260001 14
12.914 -8.0340004 3.0940001 22
13.873 -8.6560001 3.5899999 12
8.0139999 -4.9310002 1.317 15
8.7620001 -5.3930001 1.599 14
9.6680002 -5.9569998 1.942 11
10.91 -6.7329998 2.3940001 16
12.741 -7.8800001 3.036 21
13.862 -8.5970001 3.5680001 10
7.9640002 -4.8730001 1.301 15
8.7139997 -5.3330002 1.58 14
9.6020002 -5.881 1.918 11
10.768 -6.6040001 2.3499999 14
12.537 -7.7030001 2.971 17
13.999 -8.6230001 3.585 8
7.9229999 -4.8169999 1.285 15
8.6660004 -5.2690001 1.562 14
9.5179996 -5.7909999 1.8890001 11
10.681 -6.5050001 2.3169999 14
12.37 -7.5469999 2.9159999 14
14.194 -8.6789999 3.6159999 18
7.8699999 -4.7529998 1.267 15
8.5909996 -5.1869998 1.538 14
9.441 -5.7030001 1.863 10
10.585 -6.3990002 2.283 13
12.227 -7.4029999 2.8670001 15
14.301 -8.6759996 3.6240001 21
7.8239999 -4.691 1.252 15
8.5369997 -5.1160002 1.5190001 14
9.3620005 -5.6110001 1.836 10
10.475 -6.2820001 2.2460001 12
12.105 -7.2680001 2.8210001 16
14.225 -8.5570002 3.5840001 22
7.777 -4.625 1.235 15
8.4809999 -5.0409999 1.499 14
9.302 -5.5279999 1.812 11
10.377 -6.1700001 2.2119999 13
11.941 -7.1069999 2.767 16
14.016 -8.3549995 3.5120001 22
7.7160001 -4.5500002 1.217 15
8.4209995 -4.9619999 1.479 15
9.2229996 -5.4330001 1.786 12
10.293 -6.0650001 2.1819999 12
11.807 -6.9640002 2.7219999 14
13.839 -8.1730003 3.4489999 21
7.6669998 -4.4809999 1.201 14
8.375 -4.8899999 1.461 15
9.1599998 -5.3460002 1.763 13
10.197 -5.9510002 2.1489999 12
11.68 -6.8200002 2.6760001 14
13.611 -7.9569998 3.3740001 20
7.6199999 -4.4109998 1.186 15
8.3109999 -4.8049998 1.4400001 15
9.092 -5.2529998 1.74 14
10.11 -5.8410001 2.118 12
11.553 -6.6760001 2.632 11
13.378 -7.7389998 3.2980001 19
7.566 -4.335 1.169 15
8.2390003 -4.7140002 1.419 15
9.0209999 -5.158 1.715 12
10.001 -5.7160001 2.0829999 11
11.407 -6.5209999 2.585 13
13.155 -7.5250001 3.2249999 15
7.5170002 -4.2620001 1.153 16
8.1870003 -4.6339998 1.401 14
8.9569998 -5.0650001 1.693 14
9.9259996 -5.6100001 2.0550001 11
11.274 -6.3709998 2.5409999 14
12.969 -7.3340001 3.1630001 14
7.4759998 -4.191 1.14 16
8.1389999 -4.5549998 1.3839999 15
8.8979998 -4.974 1.6720001 14
9.8450003 -5.5 2.027 11
11.147 -6.2259998 2.4990001 13
12.805 -7.1550002 3.1059999 14
0 6.1440001 0 0
0 0 0 0
0 0 0 0
0 0 0 255
7.4369998 -4.1220002 1.126 15
8.0799999 -4.4699998 1.3660001 15
8.8459997 -4.8870001 1.653 14
9.7729998 -5.3940001 2.0009999 11
11.037 -6.0890002 2.461 13
12.667 -6.9899998 3.0569999 12
7.3920002 -4.0469999 1.113 15
8.0369997 -4.3909998 1.351 17
8.776 -4.7880001 1.631 15
9.6850004 -5.2779999 1.973 10
10.913 -5.9439998 2.4200001 13
12.51 -6.8130002 3.0039999 12
7.3439999 -3.97 1.098 16
7.9829998 -4.3060002 1.334 15
8.7200003 -4.6950002 1.6109999 14
9.6009998 -5.1630001 1.9450001 12
10.826 -5.8179998 2.3889999 12
12.366 -6.645 2.9549999 13
7.2969999 -3.8929999 1.085 15
7.9429998 -4.2280002 1.3200001 17
8.6610003 -4.6009998 1.592 15
9.5670004 -5.0760002 1.929 12
10.711 -5.677 2.352 12
12.237 -6.4840002 2.9100001 14
7.2620001 -3.822 1.074 15
7.8829999 -4.138 1.303 16
8.6160002 -4.5139999 1.575 16
9.4790001 -4.9580002 1.901 12
10.623 -5.5510001 2.322 12
12.086 -6.3119998 2.8610001 11
7.2270002 -3.7509999 1.063 16
7.8439999 -4.0599999 1.29 16
8.5670004 -4.4229999 1.559 15
9.4320002 -4.862 1.883 13
10.554 -5.434 2.296 11
11.978 -6.1620002 2.822 14
7.1830001 -3.674 1.051 16
7.7909999 -3.973 1.275 15
8.5190001 -4.3330002 1.5420001 15
9.3439999 -4.744 1.8559999 13
10.477 -5.3130002 2.2679999 11
11.863 -6.0100002 2.783 11
7.1459999 -3.5999999 1.04 16
7.7490001 -3.892 1.261 14
8.4530001 -4.2340002 1.523 13
9.3079996 -4.6529999 1.841 12
10.385 -5.184 2.2390001 9
11.714 -5.8410001 2.7349999 11
7.1199999 -3.5309999 1.031 16
7.7129998 -3.813 1.25 14
8.3999996 -4.1409998 1.507 14
9.2410002 -4.546 1.8200001 13
10.301 -5.059 2.2119999 9
11.617 -5.698 2.7019999 11
7.0890002 -3.46 1.022 16
7.6680002 -3.73 1.237 13
8.3660002 -4.0570002 1.494 14
9.1899996 -4.4460001 1.802 13
10.237 -4.9429998 2.1889999 9
11.505 -5.5479999 2.665 11
7.0580001 -3.3859999 1.013 19
7.6339998 -3.6500001 1.226 14
8.3079996 -3.96 1.478 15
9.1459999 -4.3499999 1.7869999 12
10.152 -4.8179998 2.1619999 9
11.424 -5.414 2.6370001 11
7.0310001 -3.316 1.005 17
7.5900002 -3.5669999 1.214 13
8.2659998 -3.8729999 1.465 15
9.0979996 -4.2509999 1.771 12
10.095 -4.7069998 2.142 4
11.315 -5.2670002 2.602 10
7.0009999 -3.2449999 0.99599999 16
7.559 -3.49 1.205 15
8.2329998 -3.789 1.454 14
9.033 -4.145 1.751 14
10.025 -4.5890002 2.1199999 11
11.235 -5.1339998 2.5739999 10
6.9840002 -3.178 0.99000001 18
7.5370002 -3.4159999 1.197 16
8.198 -3.7030001 1.442 16
8.9820004 -4.046 1.7359999 16
9.9820004 -4.4850001 2.1029999 10
11.16 -5.0050001 2.549 10
6.9580002 -3.1070001 0.98299998 17
7.4980001 -3.335 1.187 16
8.1549997 -3.615 1.4299999 15
8.9259996 -3.9449999 1.72 15
9.9289999 -4.3759999 2.086 11
11.082 -4.875 2.523 10
6.9310002 -3.0369999 0.977 19
7.473 -3.2609999 1.179 16
8.1219997 -3.5309999 1.42 16
8.8959999 -3.855 1.7079999 15
9.8669996 -4.2649999 2.066 12
11.004 -4.7449999 2.4979999 9
0 6.1440001 0 0
0 0 0 0
0 0 0 0
0 0 0 255
6.9190001 -2.973 0.972 20
7.4349999 -3.1800001 1.17 16
8.0769997 -3.441 1.409 16
8.8529997 -3.76 1.696 14
9.8070002 -4.1529999 2.0480001 13
10.931 -4.618 2.474 9
6.888 -2.8989999 0.96600002 19
7.4159999 -3.108 1.164 16
8.0450001 -3.358 1.399 16
8.8219995 -3.6689999 1.6849999 14
9.7519999 -4.0450001 2.0309999 13
10.88 -4.5019999 2.4560001 9
6.8759999 -2.835 0.96200001 18
7.3930001 -3.0339999 1.1569999 17
8.0159998 -3.277 1.391 15
8.7709999 -3.572 1.6720001 16
9.7110004 -3.9430001 2.0179999 13
10.839 -4.3889999 2.441 10
6.8559999 -2.767 0.95700002 18
7.3610001 -2.957 1.15 17
7.9899998 -3.1960001 1.383 16
8.7419996 -3.484 1.6619999 15
9.6780005 -3.845 2.006 15
10.761 -4.2620001 2.418 10
6.836 -2.6989999 0.95200002 17
7.3449998 -2.8859999 1.145 17
7.961 -3.1140001 1.376 16
8.7080002 -3.3929999 1.652 15
9.6420002 -3.7449999 1.995 14
10.704 -4.145 2.3989999 14
6.8239999 -2.6340001 0.949 19
7.3270001 -2.8139999 1.141 18
7.9369998 -3.0350001 1.369 16
8.6730003 -3.303 1.643 15
9.6049995 -3.645 1.983 14
10.674 -4.039 2.388 11
6.8099999 -2.5680001 0.94499999 18
7.316 -2.7449999 1.137 18
7.9120002 -2.9549999 1.362 16
8.6350002 -3.2119999 1.633 15
9.5559998 -3.5409999 1.97 14
10.629 -3.9260001 2.3740001 13
6.7870002 -2.4990001 0.94099998 18
7.2969999 -2.6730001 1.133 18
7.8940001 -2.878 1.357 16
8.6160002 -3.128 1.626 15
9.5179996 -3.4430001 1.959 14
10.566 -3.809 2.3559999 12
6.7810001 -2.437 0.94 17
7.2810001 -2.6029999 1.1289999 17
7.8649998 -2.7980001 1.351 15
8.5959997 -3.0450001 1.62 15
9.4829998 -3.346 1.949 14
10.545 -3.7079999 2.3469999 11
6.7639999 -2.3710001 0.93599999 18
7.2620001 -2.5309999 1.125 18
7.8449998 -2.721 1.346 14
8.566 -2.9579999 1.613 14
9.4449997 -3.2479999 1.938 13
10.483 -3.592 2.3299999 10
6.7509999 -2.306 0.93400002 15
7.2509999 -2.4630001 1.122 15
7.8249998 -2.6440001 1.341 14
8.5369997 -2.872 1.605 14
9.4239998 -3.1570001 1.931 13
10.427 -3.4790001 2.3150001 11
6.7449999 -2.244 0.93300003 16
7.244 -2.3959999 1.12 16
7.8150001 -2.5710001 1.3380001 13
8.5249996 -2.7920001 1.602 15
9.4069996 -3.0669999 1.926 12
10.435 -3.3889999 2.3139999 11
6.7389998 -2.181 0.93199998 16
7.23 -2.326 1.118 17
7.7950001 -2.494 1.334 19
8.5 -2.707 1.596 15
9.3920002 -2.977 1.921 13
10.389 -3.279 2.3010001 11
6.7290001 -2.1170001 0.93000001 17
7.217 -2.256 1.115 16
7.7859998 -2.421 1.331 17
8.4820004 -2.6240001 1.591 14
9.3590002 -2.8829999 1.913 13
10.36 -3.177 2.293 12
6.7280002 -2.0569999 0.93000001 17
7.2150002 -2.1919999 1.115 19
7.77 -2.3469999 1.3279999 14
8.46 -2.5420001 1.586 14
9.3369999 -2.7920001 1.9069999 14
10.334 -3.076 2.2850001 12
6.7199998 -1.994 0.92900002 17
7.1900001 -2.1199999 1.1109999 17
7.7589998 -2.2750001 1.326 15
8.4399996 -2.46 1.582 14
9.3319998 -2.7060001 1.905 13
10.3 -2.974 2.276 12
0 6.1440001 0 0
0 0 0 0
0 0 0 0
0 0 0 255
6.7179999 -1.933 0.92900002 18
7.1869998 -2.0539999 1.11 17
7.7399998 -2.1989999 1.322 14
8.4169998 -2.378 1.577 14
9.3050003 -2.615 1.898 13
10.269 -2.872 2.267 12
6.71 -1.87 0.92799997 17
7.171 -1.985 1.108 18
7.7340002 -2.128 1.321 17
8.4049997 -2.299 1.574 15
9.2939997 -2.529 1.895 13
10.276 -2.7809999 2.2679999 11
6.7090001 -1.809 0.92900002 20
7.1690001 -1.92 1.108 18
7.7220001 -2.0550001 1.319 17
8.3909998 -2.2190001 1.571 16
9.2650003 -2.437 1.888 13
10.25 -2.6819999 2.2609999 12
6.7059999 -1.748 0.92900002 17
7.164 -1.854 1.107 17
7.717 -1.984 1.318 15
8.3850002 -2.1429999 1.5700001 15
9.2539997 -2.3510001 1.886 13
10.214 -2.5810001 2.2520001 12
6.704 -1.687 0.92900002 17
7.1500001 -1.7869999 1.1059999 17
7.71 -1.913 1.317 15
8.375 -2.0650001 1.568 14
9.2419996 -2.2650001 1.883 13
10.206 -2.487 2.25 12
6.7119999 -1.6289999 0.93099999 19
7.1500001 -1.722 1.1059999 17
7.6999998 -1.842 1.316 15
8.3620005 -1.987 1.566 13
9.2340002 -2.1800001 1.881 14
10.185 -2.391 2.244 13
6.7059999 -1.568 0.93099999 19
7.1490002 -1.659 1.107 18
7.691 -1.771 1.3150001 15
8.3760004 -1.915 1.568 14
9.2299995 -2.0969999 1.88 13
10.175 -2.2969999 2.2420001 13
6.6859999 -1.503 0.92900002 16
7.1440001 -1.5930001 1.107 17
7.6849999 -1.7 1.314 16
8.3669996 -1.8380001 1.567 13
9.1940002 -2.006 1.873 13
10.144 -2.1989999 2.2349999 13
6.6830001 -1.442 0.92900002 16
7.1360002 -1.527 1.1059999 17
7.6919999 -1.633 1.316 14
8.3529997 -1.7589999 1.5650001 13
9.1920004 -1.923 1.873 13
10.107 -2.0999999 2.2260001 22
6.6820002 -1.382 0.93000001 17
7.1420002 -1.464 1.108 17
7.691 -1.564 1.316 16
8.3439999 -1.684 1.563 15
9.1920004 -1.841 1.873 14
10.094 -2.0079999 2.223 22
6.671 -1.3200001 0.92900002 16
7.1500001 -1.402 1.11 16
7.6890001 -1.495 1.317 16
8.3299999 -1.607 1.561 14
9.1999998 -1.761 1.875 20
10.094 -1.918 2.223 14
6.671 -1.26 0.93000001 20
7.1420002 -1.337 1.109 17
7.677 -1.424 1.3150001 17
8.3199997 -1.53 1.5599999 13
9.132 -1.666 1.8609999 26
10.077 -1.824 2.22 12
6.6890001 -1.2029999 0.93400002 16
7.132 -1.27 1.109 14
7.6750002 -1.354 1.316 16
8.3059998 -1.4529999 1.558 13
9.1120005 -1.581 1.857 21
10.065 -1.7309999 2.217 11
6.6659999 -1.1390001 0.93199998 13
7.1300001 -1.207 1.109 16
7.6589999 -1.283 1.314 14
8.3219995 -1.382 1.561 13
9.1459999 -1.505 1.865 13
10.06 -1.641 2.2160001 12
6.6630001 -1.08 0.93199998 14
7.1259999 -1.142 1.109 17
7.6620002 -1.216 1.3150001 15
8.3079996 -1.306 1.559 15
9.1260004 -1.421 1.8609999 13
10.051 -1.551 2.2149999 12
6.671 -1.021 0.93400002 16
7.1079998 -1.077 1.107 15
7.6529999 -1.147 1.314 15
8.2950001 -1.23 1.558 13
9.1289997 -1.34 1.862 14
10.051 -1.461 2.2149999 12
0 6.1440001 0 0
0 0 0 0
0 0 0 0
0 0 0 255
6.6599998 -0.95999998 0.93400002 18
7.1129999 -1.0140001 1.109 16
7.6440001 -1.077 1.313 15
8.2860003 -1.155 1.557 14
9.1199999 -1.258 1.8609999 13
10.01 -1.367 2.207 12
6.645 -0.89999998 0.93199998 17
7.1090002 -0.95099998 1.109 16
7.6529999 -1.012 1.3150001 15
8.29 -1.0829999 1.558 15
9.1079998 -1.176 1.859 14
10.018 -1.279 2.2090001 12
6.6539998 -0.84200001 0.93400002 16
7.1020002 -0.88700002 1.109 15
7.6490002 -0.94300002 1.316 16
8.2840004 -1.0089999 1.558 14
9.0970001 -1.094 1.858 14
9.9919996 -1.187 2.2030001 12
6.645 -0.78200001 0.93400002 16
7.1020002 -0.824 1.11 16
7.6389999 -0.87400001 1.3150001 16
8.2770004 -0.935 1.557 13
9.0869999 -1.013 1.8559999 14
9.9899998 -1.099 2.2030001 12
6.6360002 -0.72100002 0.93400002 17
7.0949998 -0.75999999 1.109 15
7.6430001 -0.80699998 1.316 16
8.2709999 -0.861 1.556 15
9.0860004 -0.93199998 1.8559999 13
9.974 -1.0089999 2.2 12
6.6430001 -0.66299999 0.93599999 35
7.1040001 -0.69800001 1.112 16
7.6279998 -0.73699999 1.314 16
8.2580004 -0.78500003 1.5549999 16
9.0690002 -0.85000002 1.853 13
9.9650002 -0.92000002 2.1989999 13
6.6240001 -0.60299999 0.93400002 40
7.0949998 -0.634 1.1109999 16
7.6220002 -0.67000002 1.314 17
8.2419996 -0.71200001 1.552 15
9.0670004 -0.76999998 1.854 14
9.9490004 -0.83099997 2.1960001 13
6.6300001 -0.54500002 0.935 38
7.092 -0.57200003 1.1109999 17
7.619 -0.602 1.314 17
8.243 -0.639 1.553 16
9.0509996 -0.68900001 1.851 14
9.9300003 -0.74199998 2.1919999 13
6.631 -0.486 0.93599999 18
7.0879998 -0.509 1.1109999 17
7.6059999 -0.53399998 1.312 17
8.2349997 -0.56599998 1.552 15
9.0450001 -0.60799998 1.85 13
9.9280005 -0.653 2.1919999 12
6.6350002 -0.428 0.93699998 17
7.0799999 -0.44600001 1.1109999 16
7.6009998 -0.46700001 1.312 18
8.2320004 -0.493 1.552 17
9.0450001 -0.52899998 1.851 14
9.9289999 -0.56599998 2.1930001 13
6.6240001 -0.368 0.93599999 17
7.0739999 -0.382 1.11 16
7.5949998 -0.39899999 1.311 16
8.2200003 -0.41999999 1.55 15
9.0229998 -0.447 1.847 14
9.9049997 -0.477 2.188 12
6.6240001 -0.31 0.93699998 17
7.073 -0.31999999 1.11 16
7.592 -0.33199999 1.312 17
8.2189999 -0.34799999 1.551 16
9.0229998 -0.368 1.847 14
9.8970003 -0.38999999 2.187 12
6.619 -0.25099999 0.93699998 17
7.066 -0.25799999 1.11 17
7.5819998 -0.266 1.3099999 17
8.2130003 -0.27500001 1.55 15
9.0139999 -0.289 1.846 14
9.8870001 -0.303 2.1849999 12
6.6160002 -0.193 0.93699998 18
7.0580001 -0.19499999 1.109 16
7.585 -0.199 1.311 17
8.2010002 -0.20299999 1.548 16
9.0050001 -0.20999999 1.844 14
9.8719997 -0.215 2.1819999 13
6.6129999 -0.13500001 0.93699998 18
7.0549998 -0.134 1.109 16
7.5819998 -0.132 1.311 18
8.1969995 -0.131 1.548 16
9.0050001 -0.131 1.845 14
9.8579998 -0.12899999 2.1789999 13
6.6129999 -0.077 0.93699998 18
7.0549998 -0.071000002 1.109 16
7.5650001 -0.064999998 1.308 17
8.1780005 -0.059 1.544 17
8.9940004 -0.052000001 1.8430001 13
9.8660002 -0.043000001 2.1819999 14
0 6.1440001 0 0
0 0 0 0
0 0 0 0
0 0 0 255
6.6040001 -0.018999999 0.93599999 17
7.0469999 -0.0099999998 1.108 16
7.5619998 0 1.308 16
8.1859999 0.011 1.546 15
8.9779997 0.025 1.84 14
9.8640003 0.041999999 2.1819999 13
6.599 0.037999999 0.935 18
7.046 0.050999999 1.108 17
7.552 0.064999998 1.307 17
8.1750002 0.082000002 1.545 18
8.9680004 0.103 1.8380001 16
9.842 0.12800001 2.177 13
6.592 0.094999999 0.935 19
7.04 0.112 1.108 17
7.5539999 0.131 1.307 17
8.1750002 0.153 1.545 16
8.9569998 0.18099999 1.837 16
9.8299999 0.213 2.175 13
6.5809999 0.153 0.93300003 19
0 0 0 0
7.5479999 0.197 1.307 17
8.1619997 0.22400001 1.543 17
8.9449997 0.259 1.834 17
9.8269997 0.30000001 2.175 13
6.5819998 0.20999999 0.93400002 18
7.0320001 0.235 1.107 17
7.54 0.26300001 1.3049999 17
8.151 0.296 1.541 17
8.9530001 0.338 1.836 15
9.8079996 0.384 2.171 13
6.5780001 0.26800001 0.93300003 18
7.0310001 0.296 1.107 17
7.54 0.329 1.306 17
8.1440001 0.36700001 1.54 17
8.9370003 0.41499999 1.8329999 15
9.8059998 0.47 2.171 12
6.5809999 0.32600001 0.93300003 18
7.0170002 0.35800001 1.105 17
7.5380001 0.39500001 1.3049999 16
8.1260004 0.43700001 1.536 19
8.9239998 0.493 1.831 14
9.8000002 0.55599999 2.1700001 12
6.573 0.38299999 0.93199998 18
0 0 0 50
7.533 0.46000001 1.3049999 17
8.1190004 0.50800002 1.535 17
8.9250002 0.57099998 1.831 14
9.7860003 0.64099997 2.1670001 13
6.5570002 0.44 0.93000001 19
7.0089998 0.47999999 1.103 17
