# .PCD v0.7 - Point Cloud Data file format
VERSION 0.7
FIELDS x y z intensity
SIZE 4 4 4 4
TYPE F F F F
COUNT 1 1 1 1
WIDTH 1612
HEIGHT 1
VIEWPOINT 0 0 0 1 0 0 0
POINTS 1612
DATA ascii
3.9389999 -0.403 -0.086999997 15
4.0970001 -0.41499999 -0.026000001 15
4.2849998 -0.43000001 0.039000001 16
4.4689999 -0.44400001 0.111 17
3.6500001 -0.35299999 -0.19499999 16
3.7880001 -0.36199999 -0.14300001 15
3.9319999 -0.37099999 -0.086000003 16
4.092 -0.382 -0.026000001 15
4.2779999 -0.39500001 0.039000001 15
4.4679999 -0.40900001 0.111 16
3.6530001 -0.32300001 -0.19499999 14
3.786 -0.331 -0.14300001 17
3.9289999 -0.34 -0.086000003 15
4.085 -0.34900001 -0.026000001 15
4.2750001 -0.361 0.039000001 17
4.4650002 -0.373 0.111 16
3.6459999 -0.294 -0.19499999 14
3.7839999 -0.301 -0.142 15
3.925 -0.308 -0.086000003 16
4.0910001 -0.317 -0.026000001 15
4.27 -0.32699999 0.039000001 15
4.4580002 -0.338 0.111 15
3.642 -0.264 -0.19400001 16
3.7869999 -0.271 -0.142 16
3.9289999 -0.27700001 -0.086000003 15
4.0840001 -0.285 -0.026000001 15
4.2639999 -0.29300001 0.039000001 16
4.4559999 -0.303 0.111 17
3.6470001 -0.236 -0.19499999 16
3.786 -0.241 -0.14300001 16
3.921 -0.24600001 -0.086000003 15
4.0749998 -0.25299999 -0.026000001 14
4.2639999 -0.26100001 0.039000001 16
4.4559999 -0.26899999 0.11 17
3.642 -0.207 -0.19499999 16
3.78 -0.212 -0.142 16
3.924 -0.21600001 -0.086000003 15
4.072 -0.221 -0.026000001 14
4.2589998 -0.227 0.039000001 16
4.4559999 -0.234 0.11 18
3.6370001 -0.17900001 -0.19400001 16
3.777 -0.182 -0.14300001 15
3.918 -0.186 -0.086000003 16
4.072 -0.189 -0.026000001 14
4.256 -0.19400001 0.037999999 15
4.441 -0.199 0.11 17
3.6300001 -0.15000001 -0.19400001 14
3.7720001 -0.152 -0.14300001 15
3.911 -0.155 -0.086999997 15
4.072 -0.15800001 -0.026000001 15
4.25 -0.162 0.037999999 15
4.4419999 -0.16599999 0.109 17
3.6289999 -0.122 -0.19499999 16
3.7739999 -0.124 -0.14300001 20
3.911 -0.125 -0.086999997 15
4.0609999 -0.127 -0.027000001 15
4.2480001 -0.12899999 0.037999999 16
4.434 -0.131 0.108 18
3.6229999 -0.093999997 -0.19499999 17
3.7639999 -0.093999997 -0.14300001 17
3.9089999 -0.094999999 -0.086999997 16
4.0619998 -0.096000001 -0.027000001 16
4.2410002 -0.097000003 0.037 16
4.4310002 -0.097999997 0.108 19
0 6.1440001 0 0
0 0 0 0
0 0 0 0
0 0 0 255
3.6289999 -0.066 -0.19499999 18
3.7639999 -0.066 -0.14399999 15
3.905 -0.064999998 -0.088 17
4.0549998 -0.064999998 -0.028000001 15
4.2399998 -0.064999998 0.035999998 16
4.428 -0.064999998 0.107 18
3.6159999 -0.037999999 -0.19499999 18
3.76 -0.037 -0.14399999 16
3.9030001 -0.035999998 -0.088 18
4.0479999 -0.034000002 -0.028000001 15
4.23 -0.033 0.035999998 15
4.4219999 -0.032000002 0.107 18
3.6129999 -0.011 -0.19599999 25
3.7550001 -0.0089999996 -0.14399999 19
3.898 -0.0070000002 -0.089000002 16
4.04 -0.0040000002 -0.028999999 16
4.2259998 -0.0020000001 0.035 17
4.4169998 0 0.106 19
3.6099999 0.014 -0.19599999 20
3.7590001 0.017999999 -0.145 17
3.8889999 0.021 -0.089000002 16
4.0370002 0.024 -0.028999999 17
4.2199998 0.028000001 0.035 16
4.4029999 0.032000002 0.105 19
3.6070001 0.041000001 -0.19599999 20
3.7539999 0.045000002 -0.145 16
3.8859999 0.048999999 -0.090000004 16
4.0240002 0.054000001 -0.029999999 24
4.217 0.059 0.034000002 17
4.408 0.064000003 0.105 18
3.608 0.068000004 -0.197 19
3.7449999 0.072999999 -0.146 17
3.8859999 0.078000002 -0.090000004 16
4.0279999 0.082999997 -0.029999999 15
4.2140002 0.089000002 0.033 17
4.3920002 0.096000001 0.103 18
3.609 0.093999997 -0.198 20
3.7449999 0.1 -0.146 17
3.8800001 0.105 -0.090999998 15
4.0300002 0.112 -0.030999999 15
4.2160001 0.119 0.033 16
4.3920002 0.127 0.103 16
3.602 0.12 -0.198 18
3.7420001 0.127 -0.147 16
3.878 0.133 -0.090999998 15
4.0279999 0.141 -0.032000002 15
4.2049999 0.149 0.032000002 16
4.3909998 0.15800001 0.102 17
3.6010001 0.146 -0.199 21
3.734 0.153 -0.147 14
3.878 0.161 -0.092 15
4.0240002 0.169 -0.032000002 16
4.2030001 0.17900001 0.030999999 17
4.3769999 0.189 0.101 19
3.5929999 0.171 -0.199 16
3.733 0.18000001 -0.148 15
3.868 0.18799999 -0.092 19
4.02 0.198 -0.033 16
4.1919999 0.208 0.030999999 15
4.3779998 0.22 0.101 17
3.5929999 0.197 -0.2 17
3.7260001 0.206 -0.148 17
3.8659999 0.21600001 -0.093000002 16
4.0190001 0.226 -0.033 16
4.1880002 0.237 0.029999999 17
4.3759999 0.25 0.1 17
3.585 0.222 -0.2 16
3.7179999 0.23199999 -0.149 22
3.862 0.242 -0.093999997 14
4.013 0.25299999 -0.034000002 15
4.1869998 0.266 0.028999999 16
4.369 0.28 0.098999999 16
3.579 0.24600001 -0.2 18
3.72 0.257 -0.149 18
3.8570001 0.26899999 -0.093999997 16
4.0040002 0.28 -0.034000002 15
4.1830001 0.29499999 0.028999999 15
4.3639998 0.31 0.098999999 16
3.5780001 0.271 -0.20100001 19
3.7130001 0.28200001 -0.15000001 19
3.858 0.29499999 -0.093999997 15
4.006 0.308 -0.035 16
4.1789999 0.32300001 0.028000001 15
4.3629999 0.33899999 0.097999997 17
3.5699999 0.29499999 -0.20100001 19
3.7079999 0.30700001 -0.15000001 19
3.855 0.32100001 -0.094999999 15
4.0029998 0.33500001 -0.035 15
4.1789999 0.35100001 0.028000001 15
4.3629999 0.368 0.097999997 16
3.573 0.31900001 -0.20200001 20
3.7090001 0.33199999 -0.15000001 16
3.8510001 0.34599999 -0.094999999 16
3.997 0.361 -0.035999998 16
4.1729999 0.37799999 0.027000001 15
4.3590002 0.39700001 0.097000003 17
0 6.1440001 0 0
0 0 0 0
0 0 0 0
0 0 0 255
3.569 0.34299999 -0.20200001 18
3.7079999 0.35699999 -0.15099999 19
3.848 0.37099999 -0.096000001 16
3.994 0.38699999 -0.035999998 17
4.1680002 0.405 0.027000001 16
4.3579998 0.42500001 0.097000003 18
3.569 0.366 -0.20200001 18
3.7 0.38100001 -0.15099999 18
3.8399999 0.396 -0.096000001 20
3.9890001 0.41299999 -0.035999998 17
4.165 0.43200001 0.027000001 15
4.348 0.45300001 0.097000003 17
3.5610001 0.389 -0.20200001 19
3.6960001 0.40400001 -0.15099999 17
3.8399999 0.421 -0.096000001 17
3.9909999 0.43900001 -0.037 18
4.1630001 0.45899999 0.027000001 15
4.342 0.47999999 0.097000003 18
3.5580001 0.412 -0.20299999 20
3.691 0.428 -0.15099999 19
3.8340001 0.44499999 -0.096000001 17
3.9860001 0.46399999 -0.037 17
4.165 0.486 0.027000001 16
4.349 0.509 0.097000003 18
3.5539999 0.43399999 -0.20299999 22
3.6900001 0.45100001 -0.15099999 18
3.836 0.47 -0.096000001 20
3.983 0.48899999 -0.037 16
4.1550002 0.51099998 0.026000001 17
4.3410001 0.53500003 0.096000001 19
3.5550001 0.45699999 -0.20299999 19
3.6919999 0.47499999 -0.152 19
3.829 0.493 -0.096000001 18
3.98 0.51300001 -0.037 15
4.1550002 0.537 0.026000001 15
4.3379998 0.56199998 0.096000001 19
3.5550001 0.479 -0.20299999 21
3.687 0.49700001 -0.152 17
3.8329999 0.51700002 -0.097000003 18
3.9809999 0.53799999 -0.037 17
4.1560001 0.56300002 0.027000001 16
4.342 0.58899999 0.097000003 17
3.549 0.5 -0.20299999 18
3.6849999 0.51899999 -0.15099999 18
3.8299999 0.54000002 -0.096000001 17
3.9849999 0.56300002 -0.037 17
4.1539998 0.588 0.027000001 15
4.3330002 0.61400002 0.097000003 17
3.55 0.52200001 -0.20299999 19
3.688 0.542 -0.152 18
3.825 0.56199998 -0.096000001 16
3.9790001 0.58600003 -0.035999998 16
4.1469998 0.611 0.027000001 17
4.3330002 0.63999999 0.097000003 18
3.5480001 0.54299998 -0.20200001 21
3.684 0.56300002 -0.15099999 19
3.825 0.58499998 -0.096000001 17
3.9690001 0.60799998 -0.035999998 17
4.1479998 0.63599998 0.028000001 16
4.3319998 0.66600001 0.097999997 19
3.5550001 0.565 -0.20299999 19
3.684 0.58499998 -0.15099999 19
3.816 0.60600001 -0.094999999 21
3.973 0.63200003 -0.035 19
4.1529999 0.66100001 0.028000001 16
4.3299999 0.69 0.098999999 17
3.5469999 0.58399999 -0.20200001 21
3.681 0.60600001 -0.15000001 17
3.8080001 0.62699997 -0.093999997 18
3.9679999 0.653 -0.035 19
4.145 0.68300003 0.028999999 16
4.3369999 0.71600002 0.1 18
3.536 0.602 -0.20100001 21
3.6800001 0.62599999 -0.15000001 20
3.8150001 0.64899999 -0.093999997 19
3.964 0.67500001 -0.034000002 19
4.151 0.708 0.029999999 17
4.335 0.74000001 0.101 18
3.543 0.62300003 -0.2 22
3.678 0.64600003 -0.149 14
3.8180001 0.671 -0.093000002 19
3.9679999 0.69800001 -0.033 18
4.1430001 0.72899997 0.030999999 17
4.3369999 0.76499999 0.102 18
3.543 0.64200002 -0.2 21
3.6800001 0.667 -0.148 19
3.8210001 0.69300002 -0.092 17
3.9660001 0.71899998 -0.032000002 20
4.1500001 0.75300002 0.032000002 16
4.3390002 0.78799999 0.103 17
3.5439999 0.66100001 -0.199 21
3.6800001 0.68599999 -0.147 18
3.823 0.713 -0.090999998 18
3.9690001 0.74000001 -0.030999999 18
4.1490002 0.77399999 0.034000002 15
4.3400002 0.81099999 0.105 19
0 6.1440001 0 0
0 0 0 0
0 0 0 0
0 0 0 255
3.5469999 0.68000001 -0.198 21
3.684 0.70599997 -0.146 18
3.823 0.73299998 -0.090000004 17
3.971 0.76099998 -0.028999999 21
4.151 0.796 0.035 16
4.3369999 0.833 0.106 18
3.5409999 0.69700003 -0.19599999 18
3.6819999 0.72399998 -0.145 16
3.8239999 0.75199997 -0.089000002 18
3.974 0.78200001 -0.028000001 19
4.158 0.81800002 0.037 18
4.342 0.85500002 0.108 18
3.552 0.71700001 -0.19599999 19
3.6900001 0.74400002 -0.14399999 18
3.8280001 0.77200001 -0.086999997 17
3.9790001 0.80199999 -0.026000001 17
4.152 0.838 0.039000001 18
4.3400002 0.87699997 0.11 21
3.5539999 0.73500001 -0.19400001 19
3.6919999 0.76300001 -0.142 19
3.8310001 0.79100001 -0.085000001 16
3.9849999 0.82300001 -0.024 17
4.158 0.85900003 0.041000001 20
4.3470001 0.89899999 0.113 22
3.5580001 0.75199997 -0.193 19
3.6919999 0.77999997 -0.14 17
3.832 0.80900002 -0.083999999 18
3.9949999 0.84399998 -0.023 20
4.1690001 0.88099998 0.043000001 19
4.3509998 0.92000002 0.115 20
3.5539999 0.76800001 -0.191 20
3.694 0.79699999 -0.139 21
3.8369999 0.82800001 -0.082000002 17
3.9909999 0.861 -0.02 16
4.1719999 0.90100002 0.045000002 18
4.3579998 0.94199997 0.118 21
3.559 0.78500003 -0.189 20
3.6960001 0.815 -0.13600001 20
3.8410001 0.84600002 -0.079000004 19
4 0.88099998 -0.017999999 17
4.178 0.921 0.048 17
4.368 0.963 0.121 20
3.5639999 0.801 -0.18799999 19
3.7030001 0.83200002 -0.13500001 19
3.848 0.86400002 -0.077 17
4.0019999 0.89899999 -0.016000001 17
4.1869998 0.94099998 0.050999999 17
4.369 0.98199999 0.124 20
3.566 0.81699997 -0.186 20
3.7079999 0.84799999 -0.133 18
3.8510001 0.88099998 -0.075000003 17
4.0110002 0.917 -0.013 17
4.198 0.95999998 0.054000001 18
4.3850002 1.0039999 0.127 19
3.573 0.833 -0.184 19
3.7149999 0.86500001 -0.13 17
3.858 0.898 -0.071999997 17
4.0139999 0.93400002 -0.0099999998 17
4.197 0.977 0.057 17
4.382 1.021 0.131 16
3.5840001 0.84899998 -0.182 20
3.7160001 0.87900001 -0.12800001 19
3.8629999 0.91399997 -0.07 16
4.02 0.95099998 -0.0070000002 17
4.2020001 0.99400002 0.059999999 17
4.402 1.0420001 0.13500001 19
3.579 0.861 -0.17900001 24
3.7279999 0.89600003 -0.125 17
3.868 0.92900002 -0.067000002 16
4.0310001 0.96799999 -0.0040000002 17
4.2129998 1.012 0.064000003 17
4.4070001 1.0599999 0.138 19
3.5880001 0.875 -0.176 20
3.7320001 0.91000003 -0.122 18
3.881 0.94599998 -0.064000003 18
4.0320001 0.98299998 0 17
4.2270002 1.03 0.067000002 18
4.4180002 1.0779999 0.14300001 20
3.595 0.889 -0.17299999 20
3.733 0.92299998 -0.119 18
3.8800001 0.958 -0.059999999 16
4.0380001 0.99699998 0.0020000001 16
4.2340002 1.046 0.071000002 16
4.4229999 1.094 0.147 16
3.6010001 0.90200001 -0.171 18
3.7409999 0.93599999 -0.116 18
3.891 0.97299999 -0.057 16
4.0510001 1.013 0.0060000001 18
4.2389998 1.061 0.075999998 17
4.4369998 1.1109999 0.15099999 19
3.612 0.91600001 -0.168 22
3.747 0.949 -0.113 16
3.898 0.98699999 -0.054000001 17
4.0609999 1.028 0.0099999998 18
4.2529998 1.077 0.079999998 17
4.4450002 1.127 0.156 17
0 6.1440001 0 0
0 0 0 0
0 0 0 0
0 0 0 255
3.6159999 0.92699999 -0.16500001 16
3.7590001 0.96200001 -0.109 19
3.9059999 1 -0.050000001 18
4.0689998 1.041 0.014 18
4.2639999 1.092 0.083999999 17
4.4549999 1.141 0.161 16
3.6240001 0.93800002 -0.161 19
3.7639999 0.97299999 -0.106 16
3.9170001 1.012 -0.046 17
4.0780001 1.054 0.017999999 16
4.2740002 1.105 0.089000002 15
4.4699998 1.1569999 0.16599999 16
3.6340001 0.949 -0.15800001 18
3.7679999 0.98299998 -0.102 16
3.925 1.024 -0.041999999 19
4.0840001 1.0650001 0.022 16
4.2820001 1.118 0.093000002 16
4.4829998 1.171 0.171 17
3.6370001 0.958 -0.154 18
3.779 0.995 -0.097999997 15
3.928 1.033 -0.037999999 16
4.1030002 1.079 0.027000001 16
4.2979999 1.131 0.097999997 17
4.4959998 1.184 0.177 17
3.6500001 0.96899998 -0.15099999 16
3.7950001 1.006 -0.094999999 17
3.941 1.045 -0.034000002 15
4.1110001 1.09 0.030999999 16
4.3049998 1.142 0.103 16
4.5120001 1.198 0.182 18
3.652 0.97600001 -0.147 18
3.7980001 1.0140001 -0.090999998 17
3.9560001 1.056 -0.029999999 18
4.119 1.099 0.035999998 16
4.3239999 1.155 0.109 19
4.5229998 1.209 0.18799999 18
3.671 0.98699999 -0.14399999 18
3.8080001 1.023 -0.086999997 17
3.964 1.064 -0.025 18
4.1350002 1.11 0.041000001 19
4.3330002 1.164 0.114 18
4.5359998 1.22 0.19400001 18
3.678 0.99400002 -0.14 18
3.8180001 1.031 -0.082000002 19
3.9679999 1.071 -0.021 18
4.1409998 1.118 0.046 17
4.3429999 1.173 0.119 17
4.5489998 1.23 0.2 16
3.687 1 -0.13600001 18
3.8299999 1.039 -0.078000002 17
3.987 1.081 -0.016000001 18
4.1550002 1.127 0.050999999 16
4.362 1.183 0.125 19
4.5640001 1.239 0.206 18
3.7019999 1.008 -0.132 16
3.839 1.045 -0.074000001 18
3.9909999 1.086 -0.011 17
4.1680002 1.1339999 0.056000002 16
4.3670001 1.189 0.13 18
4.5809999 1.249 0.212 17
3.7090001 1.013 -0.12800001 18
3.8510001 1.051 -0.068999998 18
4.0009999 1.092 -0.0070000002 17
4.1830001 1.141 0.061000001 16
4.3899999 1.199 0.13600001 17
4.5900002 1.255 0.21799999 18
3.7190001 1.018 -0.124 17
3.8670001 1.057 -0.064999998 18
4.0139999 1.097 -0.0020000001 16
4.1960001 1.147 0.066 16
4.4050002 1.206 0.142 16
4.6090002 1.263 0.22499999 18
3.733 1.023 -0.12 17
3.8789999 1.062 -0.061000001 18
4.033 1.104 0.0020000001 16
4.21 1.153 0.071000002 16
4.4169998 1.21 0.148 16
4.6290002 1.27 0.23100001 18
3.7349999 1.024 -0.115 17
3.8889999 1.0650001 -0.056000002 18
4.0450001 1.108 0.0070000002 16
4.2210002 1.1569999 0.077 16
4.434 1.216 0.154 16
4.638 1.273 0.237 17
3.753 1.029 -0.111 17
3.8959999 1.067 -0.052000001 18
4.0570002 1.1109999 0.012 16
4.237 1.161 0.082000002 16
4.447 1.219 0.16 16
4.6550002 1.278 0.244 16
3.7590001 1.029 -0.107 18
3.908 1.069 -0.046999998 17
4.0799999 1.1160001 0.017000001 17
4.2589998 1.166 0.088 17
4.4640002 1.223 0.16599999 17
4.6750002 1.2819999 0.25099999 17
0 6.1440001 0 0
0 0 0 0
0 0 0 0
0 0 0 255
3.7679999 1.029 -0.103 18
3.918 1.0700001 -0.041999999 17
4.0879998 1.1160001 0.022 17
4.2659998 1.165 0.093000002 16
4.4790001 1.225 0.171 17
4.6929998 1.285 0.257 17
3.7850001 1.031 -0.097999997 18
3.9360001 1.072 -0.037999999 19
4.0999999 1.117 0.027000001 16
4.2849998 1.168 0.097999997 17
4.493 1.225 0.177 17
4.7220001 1.29 0.264 17
3.789 1.029 -0.093999997 17
3.947 1.072 -0.033 21
4.112 1.1160001 0.032000002 17
4.2969999 1.1670001 0.104 18
4.5089998 1.226 0.183 18
4.7379999 1.29 0.271 17
3.8050001 1.029 -0.090000004 19
3.957 1.0700001 -0.028999999 20
4.1259999 1.115 0.037 16
4.3109999 1.166 0.109 17
4.5289998 1.226 0.19 15
4.7509999 1.288 0.27700001 16
3.819 1.028 -0.086000003 18
3.9630001 1.066 -0.024 18
4.1399999 1.114 0.041999999 17
4.3200002 1.163 0.115 17
4.5450001 1.225 0.19499999 16
4.7690001 1.2869999 0.28400001 16
3.8280001 1.024 -0.082000002 18
3.9749999 1.063 -0.02 17
4.151 1.11 0.046 17
4.3400002 1.1619999 0.12 16
4.559 1.222 0.20100001 16
4.783 1.283 0.28999999 20
3.8340001 1.0190001 -0.078000002 18
3.99 1.0599999 -0.016000001 18
4.158 1.105 0.050999999 16
4.3449998 1.155 0.125 17
4.5669999 1.216 0.206 17
4.8010001 1.28 0.296 16
3.8429999 1.0140001 -0.074000001 17
3.9920001 1.053 -0.011 15
4.177 1.102 0.056000002 15
4.3639998 1.152 0.13 15
4.5830002 1.211 0.212 18
4.822 1.276 0.30199999 16
3.8510001 1.008 -0.07 17
4.0110002 1.05 -0.0070000002 17
4.1900001 1.096 0.059999999 16
4.3790002 1.147 0.13500001 16
4.599 1.206 0.21699999 19
4.836 1.27 0.308 17
3.865 1.002 -0.066 15
4.0170002 1.041 -0.003 15
4.1999998 1.089 0.064999998 16
4.3870001 1.138 0.139 15
4.6149998 1.199 0.223 17
4.8579998 1.2640001 0.315 17
3.8729999 0.995 -0.061999999 18
4.0349998 1.036 0 17
4.2150002 1.082 0.068999998 16
4.4039998 1.132 0.14399999 18
4.6220002 1.189 0.227 17
4.869 1.255 0.31999999 17
3.8859999 0.98699999 -0.059 16
4.0510001 1.029 0.0040000002 17
4.2249999 1.073 0.072999999 16
4.4130001 1.122 0.149 15
4.6389999 1.181 0.233 17
4.8889999 1.247 0.32600001 18
3.8940001 0.97799999 -0.055 17
4.0609999 1.02 0.0080000004 18
4.237 1.064 0.077 16
4.4299998 1.114 0.153 15
4.651 1.171 0.237 17
4.9000001 1.235 0.33000001 16
3.908 0.97000003 -0.052000001 20
4.066 1.0089999 0.011 16
4.257 1.056 0.081 17
4.4400001 1.102 0.15700001 18
4.6669998 1.16 0.242 16
4.921 1.225 0.336 17
3.915 0.95899999 -0.048999999 17
4.079 0.99900001 0.014 16
4.2589998 1.043 0.085000001 16
4.4590001 1.0930001 0.162 19
4.6789999 1.148 0.24600001 18
4.9320002 1.212 0.34099999 16
3.925 0.94800001 -0.046 19
4.0939999 0.98799998 0.017999999 17
4.2670002 1.03 0.088 16
4.4660001 1.079 0.16500001 17
4.691 1.135 0.25 17
4.9380002 1.197 0.345 16
0 6.1440001 0 0
0 0 0 0
0 0 0 0
0 0 0 255
3.9319999 0.935 -0.043000001 17
4.099 0.97500002 0.021 17
4.276 1.017 0.090999998 15
4.4770002 1.066 0.169 17
4.7020001 1.1210001 0.25400001 17
4.9580002 1.184 0.34999999 17
3.9430001 0.92299998 -0.039999999 18
4.1040001 0.96100003 0.024 17
4.29 1.0039999 0.094999999 16
4.4840002 1.05 0.17200001 18
4.71 1.105 0.25799999 20
4.974 1.168 0.354 17
3.9430001 0.90799999 -0.037999999 17
4.1149998 0.94700003 0.027000001 17
4.296 0.98900002 0.097999997 16
4.4959998 1.036 0.176 17
4.7259998 1.09 0.26199999 17
4.9809999 1.15 0.35800001 19
3.95 0.89300001 -0.035 17
4.1230001 0.93199998 0.028999999 18
4.3039999 0.97299999 0.1 16
4.5100002 1.02 0.17900001 18
4.7259998 1.071 0.26499999 18
4.994 1.133 0.361 19
3.964 0.88 -0.033 20
4.1290002 0.91600001 0.032000002 17
4.3150001 0.95700002 0.103 18
4.513 1.002 0.182 18
4.743 1.054 0.26800001 18
4.9899998 1.1109999 0.36399999 19
3.9649999 0.86199999 -0.030999999 18
4.1350002 0.89899999 0.034000002 18
4.316 0.93900001 0.105 17
4.5209999 0.98400003 0.184 20
4.7490001 1.035 0.271 19
5.0040002 1.092 0.36700001 19
3.9719999 0.84600002 -0.028999999 18
4.1430001 0.88200003 0.035999998 18
4.3379998 0.92400002 0.108 19
4.5250001 0.96399999 0.186 16
4.7620001 1.016 0.27399999 20
5.013 1.071 0.37 19
3.9760001 0.82800001 -0.027000001 18
4.151 0.86500001 0.037999999 18
4.3330002 0.903 0.11 20
4.5339999 0.94499999 0.189 17
4.7659998 0.995 0.27599999 18
5.0219998 1.05 0.373 19
3.9890001 0.81199998 -0.025 20
4.1570001 0.84600002 0.039999999 19
4.3460002 0.88499999 0.112 18
4.539 0.92500001 0.191 17
4.7729998 0.97299999 0.278 20
5.0300002 1.027 0.375 19
3.9849999 0.792 -0.024 18
4.1589999 0.82599998 0.041000001 16
4.349 0.86400002 0.113 18
4.5500002 0.90499997 0.192 20
4.776 0.94999999 0.27900001 18
5.0409999 1.0039999 0.377 17
3.9960001 0.77399999 -0.022 17
4.1620002 0.80599999 0.043000001 17
4.3559999 0.84399998 0.115 17
4.5489998 0.88099998 0.19400001 17
4.7919998 0.92900002 0.28200001 19
5.0450001 0.97899997 0.37900001 22
4.0040002 0.755 -0.021 18
4.165 0.78500003 0.044 16
4.355 0.82099998 0.116 18
4.5570002 0.85900003 0.19499999 17
4.7870002 0.903 0.28299999 17
5.053 0.95499998 0.38 19
4.0029998 0.73400003 -0.02 17
4.1659999 0.76300001 0.045000002 15
4.362 0.79900002 0.117 18
4.5640001 0.83600003 0.197 18
4.7930002 0.87900001 0.28400001 18
5.0539999 0.92799997 0.382 19
4.0120001 0.71399999 -0.018999999 19
4.171 0.741 0.046 17
4.3649998 0.77600002 0.118 18
4.5710001 0.81199998 0.198 18
4.8000002 0.85399997 0.285 19
5.0599999 0.90100002 0.382 19
4.0120001 0.69199997 -0.017999999 20
4.1830001 0.72000003 0.046999998 17
4.369 0.75199997 0.119 16
4.5710001 0.787 0.198 19
4.8000002 0.82700002 0.28600001 17
5.0640001 0.87400001 0.38299999 19
4.0180001 0.67000002 -0.017999999 21
4.184 0.69700003 0.048 16
4.3709998 0.72799999 0.12 16
4.579 0.76300001 0.199 20
4.8070002 0.801 0.287 19
5.0689998 0.84600002 0.384 21
0 6.1440001 0 0
0 0 0 0
0 0 0 0
0 0 0 255
4.0180001 0.64700001 -0.017000001 20
4.1890001 0.67400002 0.048 17
4.3759999 0.704 0.12 16
4.5830002 0.73699999 0.2 20
4.8109999 0.77399999 0.287 17
5.0689998 0.81599998 0.384 18
4.02 0.62400001 -0.017000001 21
4.184 0.64899999 0.048 16
4.3829999 0.68000001 0.121 19
4.5749998 0.70999998 0.199 18
4.8049998 0.745 0.287 18
5.0640001 0.78600001 0.384 20
4.0250001 0.60100001 -0.017000001 20
4.1900001 0.625 0.048999999 16
4.3759999 0.653 0.121 17
4.5770001 0.68300003 0.2 17
4.8099999 0.71700001 0.287 19
5.0669999 0.75599998 0.384 20
4.026 0.57800001 -0.016000001 18
4.1960001 0.602 0.048999999 17
4.3870001 0.62800002 0.121 18
4.5819998 0.65600002 0.2 20
4.8099999 0.68900001 0.287 19
5.0770001 0.727 0.384 21
4.027 0.55400002 -0.016000001 17
4.1989999 0.57599998 0.048999999 16
4.3839998 0.60100001 0.121 18
4.5830002 0.62800002 0.199 20
4.822 0.66100001 0.287 20
5.0830002 0.69700003 0.384 22
4.0289998 0.52899998 -0.016000001 16
4.1939998 0.55000001 0.048999999 16
4.388 0.57499999 0.121 19
4.5949998 0.602 0.2 22
4.8080001 0.62900001 0.28600001 19
5.0799999 0.66500002 0.384 21
4.0289998 0.50400001 -0.017000001 16
4.198 0.52499998 0.048 15
4.3920002 0.54799998 0.12 19
4.5929999 0.57300001 0.199 21
4.8200002 0.60100001 0.28600001 20
5.0710001 0.63200003 0.382 19
4.0339999 0.47999999 -0.017000001 16
4.1989999 0.498 0.048 17
4.388 0.51999998 0.12 18
4.5879998 0.54299998 0.198 18
4.8210001 0.56999999 0.28600001 21
5.0679998 0.59899998 0.38100001 19
4.0310001 0.454 -0.017000001 15
4.197 0.47099999 0.048 16
4.3899999 0.49200001 0.119 17
4.5939999 0.514 0.198 19
4.8169999 0.53799999 0.28400001 19
5.0780001 0.56699997 0.38100001 22
4.0359998 0.428 -0.017999999 18
4.2030001 0.44499999 0.046999998 17
4.3920002 0.46399999 0.119 17
4.592 0.484 0.197 19
4.816 0.50700003 0.28400001 19
5.0739999 0.53399998 0.38 21
4.0339999 0.40200001 -0.017999999 17
4.1960001 0.417 0.046 16
4.3930001 0.43599999 0.118 17
4.5830002 0.45300001 0.19599999 19
4.8200002 0.47600001 0.28299999 19
5.0780001 0.50099999 0.37900001 23
4.033 0.37599999 -0.018999999 16
4.2010002 0.38999999 0.046 15
4.3930001 0.40700001 0.117 16
4.5900002 0.42399999 0.19499999 18
4.8150001 0.44400001 0.28200001 18
5.0749998 0.46700001 0.37799999 20
4.0419998 0.34999999 -0.018999999 17
4.2069998 0.36300001 0.045000002 16
4.3940001 0.37799999 0.117 16
4.585 0.39300001 0.19400001 19
4.8189998 0.412 0.28099999 19
5.0700002 0.433 0.37599999 19
4.0409999 0.32300001 -0.02 17
4.1999998 0.33399999 0.044 15
4.3930001 0.34799999 0.116 15
4.5879998 0.36199999 0.19400001 18
4.8109999 0.37799999 0.27900001 19
5.072 0.398 0.375 20
4.04 0.29499999 -0.021 19
4.2020001 0.30599999 0.044 16
4.382 0.317 0.115 13
4.592 0.331 0.193 18
4.8189998 0.34599999 0.27900001 20
5.0640001 0.36199999 0.373 19
4.0359998 0.26699999 -0.022 17
4.2020001 0.27700001 0.043000001 15
4.3870001 0.287 0.114 16
4.585 0.29899999 0.191 17
4.8179998 0.31299999 0.27700001 19
5.0630002 0.32699999 0.37200001 19
0 6.1440001 0 0
0 0 0 0
0 0 0 0
0 0 0 255
4.0339999 0.23999999 -0.022 15
4.198 0.24699999 0.041999999 15
4.3860002 0.257 0.113 16
4.586 0.26699999 0.19 16
4.8140001 0.278 0.27599999 20
5.0640001 0.29100001 0.37099999 19
4.0419998 0.212 -0.023 17
4.2059999 0.219 0.041000001 20
4.3870001 0.226 0.112 16
4.5819998 0.234 0.189 15
4.8140001 0.244 0.27500001 20
5.066 0.255 0.36899999 20
4.0289998 0.183 -0.024 16
4.1919999 0.18799999 0.039999999 14
4.388 0.19499999 0.111 15
4.5869999 0.20200001 0.18799999 19
4.8179998 0.20999999 0.27399999 21
5.0650001 0.219 0.368 22
4.0370002 0.155 -0.025 17
4.1950002 0.15899999 0.039000001 14
4.3800001 0.164 0.11 15
4.5890002 0.17 0.18700001 17
4.8119998 0.176 0.27200001 18
5.0679998 0.183 0.36700001 20
4.0339999 0.126 -0.026000001 18
4.1900001 0.12899999 0.037999999 15
4.3850002 0.133 0.109 14
4.5799999 0.13699999 0.186 17
4.8049998 0.141 0.271 17
5.0640001 0.147 0.36500001 29
4.033 0.097999997 -0.027000001 17
4.2010002 0.098999999 0.037 16
4.381 0.101 0.108 15
4.5840001 0.104 0.185 18
4.8109999 0.107 0.27000001 20
5.0630002 0.11 0.36399999 40
4.026 0.068000004 -0.027000001 18
4.1999998 0.068999998 0.035999998 16
4.3769999 0.07 0.107 14
4.5809999 0.071000002 0.184 17
4.8130002 0.071999997 0.26899999 20
5.0570002 0.071999997 0.36199999 40
4.033 0.039000001 -0.028000001 19
4.198 0.039000001 0.035 16
4.382 0.037999999 0.106 16
4.5830002 0.037 0.183 16
4.8049998 0.035999998 0.26699999 19
5.052 0.035 0.361 41
4.02 0.0099999998 -0.028999999 31
4.197 0.0080000004 0.035 16
4.3800001 0.0060000001 0.105 16
4.5770001 0.003 0.182 16
4.8060002 0 0.266 18
5.0580001 -0.0020000001 0.36000001 38
4.027 -0.018999999 -0.029999999 19
4.1890001 -0.022 0.034000002 15
4.3839998 -0.026000001 0.104 16
4.5780001 -0.029999999 0.18099999 15
4.816 -0.034000002 0.266 22
5.0630002 -0.039999999 0.359 22
4.0339999 -0.048999999 -0.029999999 19
4.2010002 -0.054000001 0.033 15
4.3860002 -0.059 0.103 16
4.5809999 -0.064000003 0.18000001 16
4.8140001 -0.071000002 0.26499999 18
5.053 -0.078000002 0.35800001 21
4.04 -0.079000004 -0.030999999 15
4.211 -0.085000001 0.032000002 16
4.3870001 -0.090999998 0.103 16
4.5869999 -0.098999999 0.17900001 16
4.8070002 -0.107 0.264 17
5.059 -0.116 0.35699999 21
4.0430002 -0.109 -0.032000002 16
4.211 -0.116 0.032000002 17
4.3909998 -0.124 0.102 15
4.5830002 -0.133 0.178 15
4.8130002 -0.14300001 0.26300001 19
5.0619998 -0.155 0.35699999 21
4.0500002 -0.14 -0.033 17
4.2059999 -0.148 0.030999999 15
4.3920002 -0.15800001 0.101 15
4.5830002 -0.168 0.178 14
4.8179998 -0.18000001 0.26300001 19
5.0619998 -0.19400001 0.35600001 18
4.039 -0.17 -0.033 14
4.1939998 -0.17900001 0.029999999 14
4.3920002 -0.191 0.101 15
4.5890002 -0.20299999 0.177 14
4.8060002 -0.21699999 0.26100001 17
5.0700002 -0.233 0.35600001 21
4.0440001 -0.20100001 -0.034000002 13
4.1989999 -0.212 0.029999999 13
4.3959999 -0.22499999 0.1 15
4.5939999 -0.23899999 0.177 14
4.8179998 -0.255 0.26100001 17
5.0679998 -0.27200001 0.35499999 21
0 6.1440001 0 0
0 0 0 0
0 0 0 0
0 0 0 255
4.0440001 -0.23199999 -0.034000002 15
4.2080002 -0.244 0.028999999 14
4.3959999 -0.259 0.1 15
4.5929999 -0.27500001 0.176 15
4.8280001 -0.29300001 0.26100001 17
5.0700002 -0.31200001 0.35499999 20
4.046 -0.26300001 -0.035 15
4.2020001 -0.27700001 0.028999999 12
4.395 -0.29300001 0.098999999 14
4.5949998 -0.31099999 0.176 16
4.8189998 -0.33000001 0.26100001 16
5.0710001 -0.35299999 0.354 19
4.0479999 -0.29499999 -0.035 16
4.2069998 -0.31 0.028999999 13
4.3920002 -0.32699999 0.098999999 13
4.5890002 -0.34599999 0.176 14
4.8200002 -0.36899999 0.25999999 16
5.0669999 -0.39199999 0.354 18
4.053 -0.32699999 -0.035 17
4.204 -0.34200001 0.028000001 13
4.3899999 -0.361 0.098999999 14
4.5970001 -0.38299999 0.176 14
4.8330002 -0.40700001 0.26100001 18
5.073 -0.433 0.354 17
4.053 -0.35800001 -0.035 16
4.2140002 -0.37599999 0.028000001 13
4.4000001 -0.39700001 0.098999999 14
4.5949998 -0.419 0.176 14
4.8280001 -0.44499999 0.26100001 17
5.0809999 -0.47400001 0.35499999 18
4.0510001 -0.38999999 -0.035999998 16
4.2179999 -0.41 0.028000001 16
4.3990002 -0.43200001 0.098999999 13
4.5999999 -0.456 0.176 13
4.836 -0.48500001 0.26100001 19
5.0840001 -0.51599997 0.35499999 17
4.0549998 -0.42300001 -0.035 16
4.224 -0.44400001 0.028000001 15
4.4130001 -0.46799999 0.098999999 16
4.6040001 -0.49399999 0.176 14
4.8369999 -0.52399999 0.26199999 16
5.0960002 -0.55800003 0.35600001 20
4.0560002 -0.45500001 -0.035 15
4.2160001 -0.477 0.028999999 13
4.414 -0.50400001 0.098999999 15
4.6110001 -0.53200001 0.177 15
4.8379998 -0.56300002 0.26199999 16
5.0960002 -0.60000002 0.35699999 20
4.0609999 -0.48800001 -0.035 15
4.2280002 -0.51200002 0.028999999 14
4.415 -0.54000002 0.1 15
4.6160002 -0.56999999 0.177 16
4.8400002 -0.60299999 0.26300001 16
5.1079998 -0.64300001 0.35800001 18
4.066 -0.52200001 -0.035 17
4.2290001 -0.54699999 0.028999999 14
4.421 -0.57700002 0.1 15
4.6129999 -0.60799998 0.178 14
4.8590002 -0.64600003 0.264 18
5.1090002 -0.68599999 0.359 17
4.0700002 -0.55500001 -0.035 16
4.2329998 -0.58200002 0.028999999 15
4.4219999 -0.61299998 0.101 14
4.6240001 -0.64700001 0.17900001 15
4.8660002 -0.68699998 0.26499999 19
5.1160002 -0.72899997 0.361 17
4.0739999 -0.58899999 -0.034000002 17
4.2389998 -0.61699998 0.029999999 15
4.434 -0.65100002 0.102 17
4.6269999 -0.685 0.18000001 16
4.8759999 -0.72799999 0.26699999 19
5.1279998 -0.773 0.36199999 19
4.0780001 -0.62300003 -0.034000002 15
4.2449999 -0.653 0.030999999 17
4.4380002 -0.68800002 0.103 15
4.6370001 -0.72500002 0.18099999 16
4.8800001 -0.76899999 0.26800001 18
5.1409998 -0.81800002 0.36500001 19
4.0830002 -0.65700001 -0.033 16
4.2529998 -0.68900001 0.032000002 17
4.441 -0.72500002 0.104 16
4.6350002 -0.76300001 0.182 15
4.8790002 -0.81 0.26899999 16
5.1440001 -0.86199999 0.366 20
4.0869999 -0.69099998 -0.033 18
4.256 -0.72500002 0.032000002 15
4.4510002 -0.764 0.105 16
4.6479998 -0.80400002 0.183 17
4.8940001 -0.85299999 0.27200001 17
5.1469998 -0.90600002 0.368 18
4.0929999 -0.72600001 -0.032000002 16
4.2639999 -0.76200002 0.034000002 14
4.4530001 -0.80199999 0.106 16
4.6550002 -0.84399998 0.185 17
4.9089999 -0.898 0.27399999 17
5.1599998 -0.95200002 0.37099999 19
0 6.1440001 0 0
0 0 0 0
0 0 0 0
0 0 0 255
4.0960002 -0.76099998 -0.030999999 16
4.2610002 -0.79699999 0.035 13
4.4549999 -0.83899999 0.107 16
4.6529999 -0.88300002 0.18700001 17
4.9109998 -0.94 0.27599999 17
5.178 -1 0.37400001 19
4.0939999 -0.79500002 -0.029999999 16
4.2690001 -0.83499998 0.035999998 14
4.4699998 -0.88 0.109 16
4.665 -0.926 0.189 15
4.927 -0.986 0.278 17
5.184 -1.045 0.37599999 18
4.0999999 -0.83099997 -0.028999999 17
4.283 -0.87400001 0.037 14
4.4720001 -0.91900003 0.111 14
4.6789999 -0.96799999 0.191 17
4.9400001 -1.03 0.28099999 17
5.2030001 -1.094 0.38 20
4.112 -0.86799997 -0.028000001 16
4.2859998 -0.91100001 0.039000001 14
4.4949999 -0.96200001 0.113 19
4.6890001 -1.011 0.193 16
4.9510002 -1.076 0.28400001 19
5.21 -1.141 0.38299999 19
4.1220002 -0.90499997 -0.026000001 16
4.2989998 -0.95099998 0.039999999 13
4.5019999 -1.002 0.115 15
4.698 -1.053 0.19599999 15
4.9629998 -1.1210001 0.287 16
5.224 -1.1900001 0.38699999 19
4.131 -0.94300002 -0.025 16
4.3099999 -0.99000001 0.041999999 17
4.5009999 -1.041 0.117 14
4.7069998 -1.097 0.198 15
4.973 -1.1670001 0.28999999 18
5.2379999 -1.239 0.391 18
4.1399999 -0.98100001 -0.024 18
4.309 -1.027 0.044 15
4.507 -1.082 0.119 16
4.7210002 -1.141 0.20100001 14
4.9910002 -1.215 0.294 16
5.2600002 -1.291 0.39500001 20
4.1420002 -1.017 -0.022 16
4.3189998 -1.067 0.046 14
4.5229998 -1.125 0.121 15
4.73 -1.184 0.204 15
4.9980001 -1.261 0.29699999 16
5.2610002 -1.3380001 0.39899999 19
4.1469998 -1.054 -0.02 14
4.3309999 -1.108 0.048 15
4.5300002 -1.166 0.124 15
4.75 -1.232 0.207 15
5.0149999 -1.3099999 0.301 16
5.2919998 -1.393 0.40400001 17
4.165 -1.096 -0.017999999 16
4.3429999 -1.149 0.050999999 13
4.5339999 -1.2079999 0.127 15
4.7639999 -1.278 0.211 14
5.04 -1.362 0.30599999 14
5.3010001 -1.444 0.40900001 19
4.1700001 -1.1339999 -0.016000001 15
4.3470001 -1.189 0.052999999 14
4.552 -1.253 0.13 14
4.7789998 -1.324 0.214 14
5.0549998 -1.4119999 0.31 15
5.3319998 -1.5 0.41499999 17
4.1789999 -1.173 -0.014 17
4.3579998 -1.2309999 0.055 13
4.5630002 -1.2970001 0.133 13
4.7930002 -1.372 0.21799999 14
5.066 -1.46 0.31400001 17
5.3439999 -1.552 0.41999999 18
4.1859999 -1.2130001 -0.012 14
4.375 -1.275 0.057999998 12
4.5780001 -1.342 0.13600001 13
4.809 -1.42 0.222 14
5.0890002 -1.513 0.31900001 14
5.3649998 -1.607 0.426 17
4.1929998 -1.252 -0.0099999998 15
4.3790002 -1.3150001 0.061000001 15
4.5879998 -1.387 0.139 12
4.8270001 -1.469 0.226 13
5.1090002 -1.566 0.324 15
5.3759999 -1.66 0.43099999 19
4.2049999 -1.293 -0.0070000002 13
4.3959999 -1.36 0.064000003 12
4.6020002 -1.433 0.14300001 12
4.8390002 -1.516 0.23 13
5.1149998 -1.615 0.329 15
5.4070001 -1.72 0.43799999 17
4.2140002 -1.335 -0.0049999999 14
4.4120002 -1.406 0.067000002 12
4.6220002 -1.482 0.147 11
4.8559999 -1.567 0.235 13
5.1370001 -1.669 0.33399999 15
5.4310002 -1.778 0.44499999 17
0 6.1440001 0 0
0 0 0 0
0 0 0 0
0 0 0 255
4.2329998 -1.38 -0.0020000001 14
4.4239998 -1.45 0.07 12
4.6389999 -1.53 0.15000001 12
4.8740001 -1.618 0.23999999 12
5.1589999 -1.725 0.34 16
5.461 -1.84 0.45199999 16
4.2360001 -1.419 0 13
4.441 -1.497 0.072999999 12
4.6529999 -1.577 0.154 13
4.8990002 -1.6720001 0.245 12
5.184 -1.7819999 0.34599999 16
5.4899998 -1.901 0.45899999 20
4.25 -1.4630001 0.0020000001 16
4.448 -1.54 0.077 14
4.6620002 -1.624 0.15800001 15
4.915 -1.723 0.25 14
5.2069998 -1.8380001 0.352 17
5.5110002 -1.96 0.46599999 22
4.263 -1.507 0.0049999999 15
4.4640002 -1.587 0.079999998 13
4.6849999 -1.675 0.163 14
4.941 -1.778 0.255 15
5.2280002 -1.895 0.359 17
5.5450001 -2.0250001 0.47499999 18
4.2789998 -1.552 0.0080000004 13
4.4780002 -1.6339999 0.083999999 14
4.6989999 -1.725 0.167 16
4.9619999 -1.8329999 0.26100001 14
5.2550001 -1.955 0.36500001 18
5.5689998 -2.0880001 0.48300001 19
4.2950001 -1.598 0.011 17
4.4899998 -1.6799999 0.086999997 15
4.7129998 -1.775 0.17200001 15
4.9759998 -1.886 0.266 15
5.2820001 -2.016 0.37200001 18
5.6079998 -2.1559999 0.49200001 19
4.3039999 -1.642 0.014 16
4.5100002 -1.73 0.090999998 16
4.7319999 -1.826 0.176 17
5 -1.943 0.27200001 15
5.3070002 -2.0769999 0.37900001 17
5.6279998 -2.2190001 0.49900001 19
4.3200002 -1.689 0.017999999 19
4.5180001 -1.777 0.094999999 14
4.75 -1.8789999 0.18099999 17
5.0219998 -1.999 0.27700001 15
5.3340001 -2.138 0.38600001 17
5.658 -2.2850001 0.50800002 19
4.3239999 -1.732 0.021 17
4.533 -1.825 0.098999999 15
4.7649999 -1.9299999 0.186 15
5.0339999 -2.052 0.28299999 17
5.3080001 -2.1789999 0.38999999 14
5.6859999 -2.3510001 0.51700002 19
4.3429999 -1.781 0.024 16
4.552 -1.876 0.103 16
4.7859998 -1.985 0.191 15
5.0609999 -2.1129999 0.289 17
5.3800001 -2.2609999 0.40099999 12
5.7179999 -2.421 0.52600002 19
4.3520002 -1.826 0.028000001 16
4.5669999 -1.927 0.108 14
4.8169999 -2.0439999 0.197 16
5.079 -2.1689999 0.29499999 17
5.402 -2.323 0.40799999 17
5.7449999 -2.4890001 0.53500003 19
4.3610001 -1.872 0.030999999 17
4.586 -1.979 0.112 14
4.8280001 -2.096 0.20200001 15
5.112 -2.234 0.30199999 16
5.4289999 -2.388 0.41600001 18
5.7820001 -2.563 0.54500002 19
4.3759999 -1.921 0.035 16
4.6030002 -2.0320001 0.116 14
4.8590002 -2.1570001 0.207 16
5.132 -2.293 0.30899999 16
5.454 -2.454 0.42399999 18
5.8039999 -2.631 0.55400002 14
4.4000001 -1.975 0.039000001 14
4.619 -2.0840001 0.121 15
4.868 -2.2090001 0.213 16
5.1570001 -2.3559999 0.31600001 16
5.4860001 -2.523 0.433 17
5.8629999 -2.7160001 0.56699997 8
4.4099998 -2.0220001 0.041999999 14
4.6399999 -2.1389999 0.126 13
4.8940001 -2.2690001 0.21799999 15
5.1729999 -2.414 0.322 15
5.5120001 -2.5899999 0.44100001 17
5.8920002 -2.789 0.57599998 11
4.4299998 -2.075 0.046 13
4.6550002 -2.1919999 0.13 14
4.9130001 -2.326 0.22400001 16
5.2010002 -2.4790001 0.329 16
5.5409999 -2.6589999 0.449 17
5.9039998 -2.855 0.58499998 18
0 6.1440001 0 0
0 0 0 0
0 0 0 0
0 0 0 255
4.4429998 -2.125 0.050000001 16
4.6729999 -2.2460001 0.13500001 14
4.9239998 -2.381 0.229 14
5.2259998 -2.543 0.336 16
5.5799999 -2.734 0.45899999 18
5.9450002 -2.9349999 0.59600002 18
4.4520001 -2.1730001 0.054000001 16
4.6950002 -2.303 0.14 14
4.9510002 -2.4430001 0.235 15
5.2529998 -2.609 0.34299999 17
5.618 -2.809 0.46799999 15
5.9840002 -3.0150001 0.60699999 16
4.4850001 -2.233 0.057999998 13
4.7199998 -2.3629999 0.145 15
4.974 -2.5039999 0.241 15
5.2709999 -2.6700001 0.34999999 15
5.6430001 -2.878 0.477 15
6.0170002 -3.092 0.61799997 16
4.4860001 -2.2780001 0.061000001 15
4.7379999 -2.4189999 0.149 14
4.9889998 -2.562 0.24699999 15
5.3010001 -2.74 0.35800001 15
5.664 -2.948 0.48500001 15
6.0619998 -3.178 0.63 20
4.5139999 -2.3380001 0.064999998 16
4.7550001 -2.4760001 0.154 17
5 -2.618 0.252 16
5.3379998 -2.812 0.366 16
5.691 -3.0190001 0.49399999 17
6.0879998 -3.2539999 0.63999999 19
4.5279999 -2.3900001 0.068999998 16
4.7579999 -2.5250001 0.15800001 15
5.027 -2.6830001 0.25799999 16
5.362 -2.8800001 0.373 17
5.7309999 -3.0999999 0.50400001 19
6.1240001 -3.3369999 0.65100002 19
4.5469999 -2.4460001 0.072999999 15
4.7930002 -2.592 0.164 17
5.0749998 -2.76 0.266 16
5.3829999 -2.9460001 0.38 16
5.7519999 -3.1700001 0.51200002 18
6.1570001 -3.418 0.662 17
4.5650001 -2.5020001 0.077 16
4.8039999 -2.6470001 0.169 16
5.0650001 -2.806 0.27000001 17
5.4099998 -3.017 0.38800001 16
5.789 -3.25 0.52200001 18
6.1939998 -3.503 0.67400002 17
4.573 -2.553 0.081 16
4.8260002 -2.7079999 0.17299999 17
5.0900002 -2.872 0.27599999 18
5.4299998 -3.0829999 0.39500001 16
5.8179998 -3.326 0.53100002 17
6.2309999 -3.5880001 0.685 16
4.5890002 -2.6070001 0.085000001 16
4.8470001 -2.7679999 0.178 16
5.1350002 -2.9489999 0.28299999 16
5.4549999 -3.152 0.40200001 16
5.8540001 -3.4059999 0.54000002 18
6.2810001 -3.681 0.69800001 16
4.6059999 -2.6630001 0.088 16
4.8239999 -2.803 0.18099999 14
5.1589999 -3.0150001 0.289 16
5.4759998 -3.2190001 0.40900001 16
5.8800001 -3.4809999 0.54900002 16
6.3200002 -3.7690001 0.70999998 15
4.6230001 -2.7190001 0.092 16
4.875 -2.882 0.18700001 16
5.1799998 -3.079 0.29499999 15
5.5040002 -3.2920001 0.41600001 16
5.915 -3.562 0.55900002 17
6.3600001 -3.858 0.72100002 17
4.6370001 -2.7739999 0.096000001 15
4.901 -2.9460001 0.192 18
5.197 -3.142 0.30000001 15
5.5320001 -3.365 0.42399999 16
5.9429998 -3.6389999 0.56800002 17
6.3990002 -3.947 0.73299998 16
4.6630001 -2.836 0.1 16
4.921 -3.0079999 0.197 14
5.2179999 -3.207 0.30599999 15
5.5510001 -3.4319999 0.43000001 16
5.9749999 -3.7190001 0.57700002 17
6.441 -4.039 0.745 14
4.6550002 -2.878 0.102 15
4.9380002 -3.0669999 0.20100001 14
5.237 -3.2709999 0.31099999 14
5.5780001 -3.5050001 0.43700001 17
5.9990001 -3.796 0.58499998 17
6.4899998 -4.1360002 0.75800002 14
4.6849999 -2.9430001 0.106 16
4.9530001 -3.1259999 0.205 14
5.256 -3.336 0.317 15
5.6040001 -3.5769999 0.44400001 16
6.039 -3.881 0.59399998 17
6.5279999 -4.2259998 0.76899999 16
0 6.1440001 0 0
0 0 0 0
0 0 0 0
0 0 0 255
4.6789999 -2.9860001 0.109 14
4.9679999 -3.1849999 0.20900001 14
5.2779999 -3.402 0.322 15
5.632 -3.652 0.45100001 16
6.0780001 -3.967 0.60399997 16
6.5700002 -4.3189998 0.78100002 16
4.711 -3.052 0.112 14
4.9840002 -3.244 0.213 14
5.296 -3.4660001 0.32699999 15
5.6550002 -3.7219999 0.458 16
6.1079998 -4.0469999 0.61299998 17
6.6110001 -4.4120002 0.792 15
4.7290001 -3.1099999 0.115 13
5.006 -3.3069999 0.21699999 15
5.3109999 -3.527 0.33199999 15
5.678 -3.793 0.46399999 16
6.1459999 -4.132 0.62199998 19
6.6550002 -4.506 0.80400002 15
4.7399998 -3.1630001 0.118 14
5.0159998 -3.362 0.22 15
5.3340001 -3.5940001 0.33700001 16
5.7069998 -3.868 0.47099999 16
6.1789999 -4.2150002 0.63 20
6.6989999 -4.6020002 0.815 14
4.75 -3.2149999 0.121 15
5.027 -3.418 0.22400001 14
5.3520002 -3.658 0.34099999 16
5.7280002 -3.937 0.47600001 15
6.2150002 -4.2989998 0.639 20
6.7480001 -4.7010002 0.82700002 15
4.7589998 -3.267 0.123 13
5.0450001 -3.4790001 0.227 14
5.3699999 -3.721 0.345 16
5.7420001 -4.0009999 0.48100001 15
6.237 -4.3740001 0.64600003 19
6.79 -4.7950001 0.838 15
4.7649999 -3.316 0.125 18
5.0609999 -3.5369999 0.23 18
5.3909998 -3.786 0.34999999 18
5.7729998 -4.0780001 0.48800001 16
6.2729998 -4.4590001 0.65399998 21
6.8330002 -4.8899999 0.84799999 16
4.783 -3.3729999 0.127 16
5.072 -3.592 0.233 18
5.4000001 -3.8429999 0.35299999 17
5.7880001 -4.1420002 0.49200001 18
6.2979999 -4.5349998 0.66000003 20
6.8759999 -4.9850001 0.85900003 16
4.7919998 -3.424 0.12899999 16
5.0830002 -3.6470001 0.235 16
5.421 -3.9070001 0.35699999 17
5.8099999 -4.21 0.49700001 16
6.3200002 -4.6069999 0.66600001 22
6.915 -5.0749998 0.86799997 15
4.8049998 -3.4749999 0.13 16
5.0910001 -3.697 0.237 17
5.4349999 -3.9649999 0.36000001 17
5.8270001 -4.2740002 0.50099999 15
6.3520002 -4.6869998 0.67299998 18
6.9590001 -5.1690001 0.87800002 15
4.809 -3.5209999 0.131 16
5.0999999 -3.7490001 0.23899999 16
5.4510002 -4.0250001 0.36300001 16
5.8439999 -4.3369999 0.505 16
6.3779998 -4.7620001 0.67900002 17
7.0240002 -5.2789998 0.88999999 14
4.8189998 -3.5699999 0.133 16
5.1110001 -3.8 0.241 16
5.4520001 -4.073 0.36500001 18
5.8600001 -4.3990002 0.509 15
6.4200001 -4.848 0.68599999 17
7.0840001 -5.3839998 0.90100002 16
4.8210001 -3.612 0.133 16
5.118 -3.849 0.242 17
5.4749999 -4.1350002 0.368 15
5.8779998 -4.4619999 0.51200002 15
6.434 -4.9109998 0.69 16
7.1069999 -5.46 0.90700001 18
4.8249998 -3.655 0.134 16
5.125 -3.8959999 0.243 16
5.4829998 -4.1849999 0.36899999 15
5.8979998 -4.5240002 0.51499999 15
6.46 -4.9819999 0.69499999 15
7.1079998 -5.5159998 0.91000003 20
4.8319998 -3.6989999 0.134 15
5.1350002 -3.944 0.244 16
5.4889998 -4.2329998 0.37 14
5.9089999 -4.5780001 0.51800001 14
6.506 -5.0679998 0.70200002 15
7.1350002 -5.592 0.91600001 19
4.835 -3.7379999 0.134 15
5.1440001 -3.99 0.245 16
5.4970002 -4.2800002 0.37099999 17
5.9229999 -4.6329999 0.51999998 15
6.5300002 -5.1350002 0.70599997 17
7.1479998 -5.6539998 0.91900003 18
0 6.1440001 0 0
0 0 0 0
0 0 0 0
0 0 0 255
4.835 -3.7739999 0.134 16
5.1469998 -4.0300002 0.245 15
5.4949999 -4.3189998 0.37099999 15
5.934 -4.684 0.52100003 15
6.5549998 -5.2010002 0.70899999 17
7.1500001 -5.7049999 0.921 16
4.8400002 -3.812 0.133 15
5.1479998 -4.0669999 0.244 16
5.5040002 -4.3629999 0.37200001 13
5.9489999 -4.7360001 0.523 14
6.5630002 -5.2509999 0.70999998 17
7.1659999 -5.7659998 0.92400002 17
4.8379998 -3.8440001 0.132 15
5.1550002 -4.1069999 0.244 15
5.5100002 -4.4039998 0.37200001 13
5.9549999 -4.7800002 0.523 14
6.5619998 -5.2930002 0.71100003 18
7.1680002 -5.8130002 0.92400002 16
4.8379998 -3.875 0.131 15
5.1570001 -4.1409998 0.243 16
5.513 -4.441 0.37099999 13
5.9650002 -4.8249998 0.523 15
6.559 -5.3299999 0.70999998 18
7.164 -5.8520002 0.92299998 17
4.8429999 -3.9089999 0.13 15
5.1529999 -4.1690001 0.242 15
5.5180001 -4.4780002 0.37099999 13
5.9840002 -4.8740001 0.52399999 15
6.5630002 -5.3709998 0.70999998 17
7.1570001 -5.8870001 0.92199999 16
4.8429999 -3.937 0.12800001 15
5.1539998 -4.1989999 0.241 14
5.5180001 -4.5089998 0.36899999 13
5.9949999 -4.9169998 0.52399999 16
6.5510001 -5.395 0.70700002 18
7.1459999 -5.915 0.92000002 16
4.8439999 -3.964 0.127 15
5.152 -4.224 0.23899999 13
5.5180001 -4.5370002 0.368 13
5.9889998 -4.941 0.52100003 16
6.5489998 -5.4250002 0.70499998 18
7.1409998 -5.9439998 0.917 16
4.8369999 -3.9820001 0.125 15
5.1560001 -4.2519999 0.237 14
5.5149999 -4.5599999 0.366 12
5.9790001 -4.96 0.51899999 17
6.5409999 -5.447 0.70200002 16
7.125 -5.961 0.91299999 16
4.8340001 -4.0019999 0.122 15
5.1469998 -4.2690001 0.234 17
5.507 -4.5780001 0.36300001 14
5.9699998 -4.9780002 0.51599997 19
6.5339999 -5.4679999 0.699 19
7.1090002 -5.9749999 0.90899998 19
4.8280001 -4.0180001 0.12 18
5.1420002 -4.2849998 0.23199999 17
5.5009999 -4.5939999 0.36000001 14
5.9629998 -4.994 0.51300001 19
6.5240002 -5.4829998 0.69499999 19
7.1020002 -5.994 0.90499997 19
4.822 -4.0310001 0.117 18
5.1370001 -4.2989998 0.229 14
5.493 -4.6059999 0.35699999 14
5.9549999 -5.006 0.509 20
6.5089998 -5.4899998 0.69099998 19
7.092 -6.006 0.89999998 19
4.8179998 -4.0440001 0.114 18
5.1329999 -4.3119998 0.226 14
5.4879999 -4.6170001 0.354 14
5.9390001 -5.0089998 0.50400001 18
6.4860001 -5.487 0.685 20
7.0749998 -6.0089998 0.89399999 17
4.8119998 -4.052 0.111 16
5.118 -4.3119998 0.222 15
5.4860001 -4.6290002 0.34999999 15
5.927 -5.0120001 0.5 18
6.4689999 -5.4860001 0.68000001 19
7.0609999 -6.0089998 0.889 18
4.802 -4.0549998 0.108 16
5.1129999 -4.3189998 0.219 16
5.4749999 -4.631 0.34599999 14
5.915 -5.013 0.49599999 18
6.4499998 -5.48 0.67400002 18
7.046 -6.007 0.88200003 17
4.7940001 -4.0560002 0.105 17
5.0999999 -4.3169999 0.215 14
5.467 -4.632 0.34200001 15
5.9029999 -5.0100002 0.491 18
6.4330001 -5.473 0.66799998 18
7.0240002 -5.994 0.875 18
4.7859998 -4.0560002 0.101 17
5.0900002 -4.3140001 0.211 14
5.4580002 -4.6300001 0.338 14
5.8839998 -4.9980001 0.48500001 18
6.4089999 -5.4569998 0.66100001 18
7.0110002 -5.9860001 0.86900002 18
0 6.1440001 0 0
0 0 0 0
0 0 0 0
0 0 0 255
4.7709999 -4.0479999 0.097999997 16
5.0809999 -4.3099999 0.207 14
5.441 -4.618 0.333 14
5.8699999 -4.9879999 0.47999999 18
6.3899999 -5.441 0.65399998 18
6.9899998 -5.967 0.861 18
4.7620001 -4.0419998 0.093999997 17
5.072 -4.3039999 0.20299999 14
5.4239998 -4.6030002 0.32800001 14
5.8439999 -4.9640002 0.47299999 18
6.3660002 -5.4169998 0.64700001 18
6.9660001 -5.9429998 0.852 18
4.756 -4.0359998 0.090999998 17
5.0570002 -4.289 0.199 14
5.4060001 -4.585 0.32300001 14
5.835 -4.9530001 0.46799999 18
6.342 -5.3909998 0.63999999 18
6.9489999 -5.9200001 0.84500003 18
4.7420001 -4.0209999 0.086999997 17
5.0469999 -4.276 0.19499999 14
5.3899999 -4.566 0.31799999 14
5.822 -4.934 0.463 18
6.3140001 -5.3579998 0.63200003 19
6.9250002 -5.888 0.83600003 19
4.7329998 -4.0079999 0.082999997 18
5.033 -4.257 0.191 15
5.381 -4.5500002 0.31299999 15
5.796 -4.902 0.456 18
6.302 -5.335 0.625 19
6.902 -5.8530002 0.82700002 18
4.7249999 -3.993 0.079999998 16
5.0170002 -4.2340002 0.186 14
5.3649998 -4.5250001 0.30899999 15
5.7839999 -4.8790002 0.45100001 18
6.2810001 -5.302 0.61799997 19
6.8769999 -5.8140001 0.81800002 19
4.711 -3.971 0.075999998 17
5.0089998 -4.2160001 0.182 16
5.3470001 -4.4959998 0.303 14
5.7649999 -4.8470001 0.44400001 19
6.256 -5.263 0.611 19
6.8530002 -5.7719998 0.81 19
4.698 -3.948 0.072999999 17
4.9879999 -4.184 0.178 14
5.3280001 -4.4640002 0.29800001 15
5.7420001 -4.809 0.43799999 18
6.2340002 -5.223 0.60299999 19
6.8200002 -5.7199998 0.80000001 19
4.6890001 -3.9260001 0.068999998 17
4.9770002 -4.1589999 0.17399999 16
5.3200002 -4.4390001 0.294 15
5.7179999 -4.7680001 0.43200001 16
6.2069998 -5.177 0.59600002 19
6.7940001 -5.671 0.79100001 19
4.6789999 -3.901 0.066 18
4.961 -4.1259999 0.17 15
5.303 -4.4039998 0.289 15
5.6789999 -4.7129998 0.42500001 15
6.1880002 -5.1339998 0.58899999 19
6.7750001 -5.6240001 0.78200001 19
4.6690001 -3.8729999 0.063000001 16
4.9489999 -4.0960002 0.16599999 16
5.2849998 -4.3660002 0.28400001 12
5.6589999 -4.6690001 0.419 14
6.171 -5.0910001 0.58200002 18
6.744 -5.5650001 0.773 16
4.651 -3.8369999 0.059999999 14
4.9380002 -4.0630002 0.163 14
5.2690001 -4.3270001 0.28 12
5.6399999 -4.6259999 0.41299999 14
6.1539998 -5.0450001 0.57499999 17
6.7179999 -5.5079999 0.764 16
4.6409998 -3.806 0.057 14
4.921 -4.0240002 0.15899999 15
5.2509999 -4.2849998 0.27500001 13
5.619 -4.5780001 0.40700001 14
6.1300001 -4.9910002 0.56800002 17
6.6859999 -5.4429998 0.755 16
4.6300001 -3.7720001 0.054000001 15
4.9109998 -3.9890001 0.156 15
5.2319999 -4.2389998 0.271 14
5.598 -4.5289998 0.40200001 14
6.099 -4.9299998 0.56099999 15
6.664 -5.3839998 0.74699998 16
4.618 -3.7360001 0.050999999 15
4.8979998 -3.9489999 0.152 16
5.2189999 -4.198 0.266 16
5.5739999 -4.4749999 0.396 14
6.0510001 -4.8530002 0.55199999 15
6.6300001 -5.3140001 0.73799998 16
4.618 -3.707 0.048999999 16
4.8870001 -3.9100001 0.149 15
5.2020001 -4.151 0.26300001 15
5.5570002 -4.4250002 0.39199999 14
6.026 -4.7919998 0.54500002 14
6.5960002 -5.2420001 0.72899997 17
0 6.1440001 0 0
0 0 0 0
0 0 0 0
0 0 0 255
4.605 -3.6670001 0.046999998 16
4.8759999 -3.869 0.147 16
5.1880002 -4.105 0.259 15
5.5419998 -4.375 0.38699999 14
6.0019999 -4.7309999 0.53899997 15
6.5679998 -5.1739998 0.72100002 16
4.5949998 -3.628 0.045000002 15
4.869 -3.8299999 0.14399999 16
5.1739998 -4.0580001 0.25600001 15
5.5219998 -4.3200002 0.382 16
5.9749999 -4.6669998 0.53299999 15
6.5219998 -5.0879998 0.71100003 14
4.5890002 -3.5899999 0.043000001 16
4.855 -3.7839999 0.142 16
5.1539998 -4.0040002 0.252 16
5.5100002 -4.27 0.37900001 17
5.9520001 -4.6030002 0.52700001 15
6.4559999 -4.987 0.69999999 14
4.573 -3.5439999 0.041000001 15
4.8460002 -3.74 0.14 16
5.1440001 -3.957 0.249 16
5.494 -4.2150002 0.375 18
5.9219999 -4.5339999 0.52100003 14
6.4250002 -4.9120002 0.69199997 15
4.5700002 -3.506 0.039999999 15
4.8340001 -3.694 0.13699999 16
5.1339998 -3.9089999 0.24699999 17
5.4790001 -4.1599998 0.37099999 15
5.9050002 -4.473 0.51599997 16
6.3940001 -4.836 0.685 16
4.5609999 -3.4630001 0.039000001 15
4.8299999 -3.651 0.13600001 17
5.1170001 -3.8540001 0.244 17
5.4650002 -4.1040001 0.36700001 17
5.8759999 -4.402 0.50999999 15
6.3590002 -4.7550001 0.67699999 15
4.5599999 -3.424 0.037999999 15
4.8179998 -3.6010001 0.134 16
5.1139998 -3.809 0.242 17
5.4510002 -4.0469999 0.36500001 17
5.8579998 -4.3379998 0.50599998 15
6.3270001 -4.677 0.671 18
4.5510001 -3.3789999 0.037 18
4.8119998 -3.556 0.133 17
