# .PCD v0.7 - Point Cloud Data file format
VERSION 0.7
FIELDS x y z intensity
SIZE 4 4 4 4
TYPE F F F F
COUNT 1 1 1 1
WIDTH 1646
HEIGHT 1
VIEWPOINT 0 0 0 1 0 0 0
POINTS 1646
DATA ascii
5.9679999 -4.0159998 0.56900001 15
6.48 -4.3899999 0.745 20
7.085 -4.8340001 0.954 14
4.9330001 -3.3139999 0.189 16
5.243 -3.5380001 0.301 15
5.5949998 -3.796 0.42899999 15
6.0040002 -4.0970001 0.57700002 15
6.5289998 -4.4850001 0.75599998 18
7.1360002 -4.9369998 0.96799999 14
4.947 -3.3699999 0.192 13
5.2519999 -3.5940001 0.30500001 15
5.6059999 -3.8559999 0.43399999 13
6.0339999 -4.1750002 0.58499998 15
6.5799999 -4.5819998 0.76700002 15
7.1849999 -5.039 0.98100001 14
4.967 -3.4289999 0.19499999 17
5.2719998 -3.6559999 0.30899999 18
5.6259999 -3.9219999 0.43900001 17
6.0669999 -4.2540002 0.59200001 19
6.6090002 -4.664 0.77499998 18
7.2379999 -5.1440001 0.99400002 15
4.974 -3.48 0.198 17
5.2859998 -3.7149999 0.31200001 17
5.6469998 -3.9879999 0.44299999 17
6.085 -4.323 0.597 20
6.6539998 -4.757 0.78500003 17
7.2989998 -5.2550001 1.008 15
4.9850001 -3.533 0.2 17
5.302 -3.7739999 0.315 17
5.6700001 -4.0560002 0.44800001 16
6.1139998 -4.3979998 0.60399997 19
6.6919999 -4.8439999 0.79400003 17
7.3779998 -5.3769999 1.024 15
4.9970002 -3.585 0.20200001 17
5.3109999 -3.8269999 0.31799999 17
5.677 -4.1110001 0.45100001 16
6.1360002 -4.467 0.61000001 22
6.7290001 -4.9299998 0.80299997 17
7.4310002 -5.4809999 1.0369999 16
4.9980001 -3.6300001 0.204 17
5.3309999 -3.8870001 0.32100001 16
5.6939998 -4.1719999 0.45500001 15
6.158 -4.5370002 0.61400002 18
6.7690001 -5.0180001 0.81099999 17
7.4650002 -5.5710001 1.046 17
5.0139999 -3.684 0.205 16
5.3340001 -3.9349999 0.32300001 16
5.7049999 -4.2280002 0.458 15
6.1810002 -4.6059999 0.61900002 15
6.8099999 -5.1040001 0.81900001 15
7.487 -5.6490002 1.053 17
5.0159998 -3.727 0.206 16
5.3470001 -3.9890001 0.32499999 17
5.7259998 -4.2909999 0.461 15
6.197 -4.6690001 0.62300003 15
6.8610001 -5.1989999 0.829 15
7.5019999 -5.7220001 1.059 17
5.027 -3.777 0.207 16
5.362 -4.0430002 0.32699999 16
5.737 -4.3460002 0.46399999 15
6.2160001 -4.7319999 0.62699997 15
6.9089999 -5.29 0.83700001 17
7.5120001 -5.7880001 1.063 17
0 6.1440001 0 0
0 0 0 0
0 0 0 0
0 0 0 255
5.0339999 -3.822 0.208 16
5.3709998 -4.092 0.32800001 15
5.7519999 -4.401 0.46599999 15
6.237 -4.796 0.63099998 15
6.9569998 -5.3790002 0.84500003 19
7.5190001 -5.8509998 1.068 17
5.04 -3.865 0.20900001 15
5.3740001 -4.1350002 0.329 16
5.763 -4.4520001 0.46799999 14
6.2509999 -4.8520002 0.63300002 14
6.9679999 -5.4390001 0.84799999 19
7.5159998 -5.9039998 1.069 17
5.0430002 -3.905 0.208 16
5.381 -4.1799998 0.329 14
5.7690001 -4.4990001 0.46900001 15
6.2750001 -4.9169998 0.63700002 15
6.9629998 -5.4850001 0.84799999 20
7.5050001 -5.947 1.069 16
5.0450001 -3.941 0.208 16
5.3870001 -4.2220001 0.33000001 15
5.783 -4.5500002 0.47 14
6.2989998 -4.9780002 0.639 16
6.9720001 -5.5380001 0.85000002 21
7.513 -6.0040002 1.071 17
5.0469999 -3.9779999 0.208 17
5.381 -4.2540002 0.329 16
5.7849998 -4.5890002 0.47 15
6.3260002 -5.0409999 0.64200002 17
6.98 -5.5890002 0.852 19
7.5209999 -6.0580001 1.073 16
5.0510001 -4.0139999 0.207 16
5.3889999 -4.2940001 0.32800001 14
5.79 -4.6300001 0.47 14
6.3280001 -5.0809999 0.64200002 17
6.987 -5.6370001 0.852 18
7.5100002 -6.092 1.072 18
5.0510001 -4.0440001 0.206 16
5.388 -4.3249998 0.32800001 13
5.7919998 -4.665 0.46900001 14
6.3280001 -5.1170001 0.64099997 18
6.9829998 -5.6729999 0.85100001 18
7.506 -6.131 1.071 16
5.0479999 -4.0710001 0.204 15
5.3889999 -4.3559999 0.32600001 14
5.7969999 -4.7010002 0.46799999 13
6.3270001 -5.1500001 0.63999999 17
6.9809999 -5.7080002 0.85000002 17
7.4970002 -6.1620002 1.069 16
5.0440001 -4.0949998 0.20299999 16
5.3930001 -4.388 0.32499999 13
5.7979999 -4.7309999 0.46700001 13
6.3189998 -5.1750002 0.63800001 17
6.9720001 -5.7340002 0.84799999 17
7.506 -6.2049999 1.068 17
5.0430002 -4.119 0.2 16
5.395 -4.415 0.32300001 13
5.7969999 -4.757 0.465 14
6.3109999 -5.197 0.63499999 17
6.9650002 -5.7589998 0.84500003 17
7.4970002 -6.2290001 1.0650001 17
5.0409999 -4.1399999 0.198 15
5.3850002 -4.4299998 0.31999999 14
5.8000002 -4.7839999 0.463 15
6.303 -5.2160001 0.63200003 21
6.9580002 -5.7810001 0.84100002 20
7.48 -6.243 1.0599999 17
5.0370002 -4.158 0.19599999 17
5.3800001 -4.447 0.31799999 14
5.8039999 -4.809 0.461 15
6.2930002 -5.23 0.62800002 19
6.9380002 -5.7880001 0.83600003 19
7.4569998 -6.2480001 1.054 19
5.0310001 -4.171 0.193 16
5.3730001 -4.461 0.315 16
5.8010001 -4.8260002 0.458 16
6.2870002 -5.2449999 0.625 19
6.9200001 -5.7930002 0.83099997 19
7.4499998 -6.263 1.05 19
5.026 -4.1830001 0.19 16
5.3629999 -4.4679999 0.31099999 14
5.7909999 -4.8340001 0.454 16
6.2680001 -5.2459998 0.62 20
6.9060001 -5.7989998 0.82599998 20
7.427 -6.2620001 1.043 19
5.0139999 -4.1859999 0.18700001 16
5.3600001 -4.48 0.308 14
5.7810001 -4.8390002 0.44999999 17
6.2490001 -5.244 0.61500001 19
6.8920002 -5.8010001 0.82099998 20
7.4109998 -6.2620001 1.0369999 20
5.0079999 -4.1929998 0.183 15
5.3509998 -4.4829998 0.30399999 15
5.7610002 -4.8340001 0.44499999 17
6.2399998 -5.2470002 0.61000001 19
6.8720002 -5.7950001 0.81400001 20
7.3969998 -6.2600002 1.03 19
0 6.1440001 0 0
0 0 0 0
0 0 0 0
0 0 0 255
5.0040002 -4.198 0.18000001 16
5.3429999 -4.4850001 0.301 15
5.7540002 -4.836 0.44100001 19
6.2220001 -5.2389998 0.60399997 19
6.8470001 -5.7810001 0.80599999 20
7.3730001 -6.2459998 1.022 19
4.9920001 -4.1950002 0.176 16
5.3299999 -4.48 0.296 14
5.7410002 -4.8299999 0.43599999 17
6.204 -5.2290001 0.59899998 19
6.8309999 -5.7709999 0.80000001 19
7.3660002 -6.2420001 1.016 20
4.9809999 -4.1900001 0.17299999 17
5.3179998 -4.473 0.292 14
5.723 -4.8179998 0.43099999 16
6.1849999 -5.2140002 0.59200001 19
6.8109999 -5.7540002 0.792 20
7.3330002 -6.2140002 1.006 19
4.967 -4.1789999 0.169 16
5.3060002 -4.4640002 0.28799999 14
5.711 -4.8070002 0.426 16
6.1620002 -5.1929998 0.58600003 19
6.79 -5.7329998 0.78500003 20
7.323 -6.1999998 0.99800003 19
4.9559999 -4.1700001 0.16500001 17
5.2940001 -4.4520001 0.28299999 14
5.6900001 -4.7859998 0.41999999 16
6.1500001 -5.1789999 0.579 19
6.7670002 -5.7069998 0.77700001 20
7.2950001 -6.1669998 0.98799998 18
4.947 -4.158 0.161 17
5.2779999 -4.434 0.278 14
5.677 -4.7690001 0.41499999 17
6.1230001 -5.1479998 0.57200003 20
6.7410002 -5.6760001 0.76899999 20
7.2870002 -6.1490002 0.98100001 19
4.9349999 -4.1430001 0.15700001 15
5.27 -4.4200001 0.27399999 15
5.6529999 -4.7410002 0.40900001 15
6.1040001 -5.1209998 0.56599998 19
6.7160001 -5.6420002 0.75999999 20
7.2639999 -6.1129999 0.972 19
4.9180002 -4.1199999 0.152 16
5.2459998 -4.3899999 0.26899999 15
5.6269999 -4.7069998 0.403 15
6.0799999 -5.0869999 0.55800003 20
6.6880002 -5.6009998 0.75099999 20
7.244 -6.0770001 0.963 19
4.9060001 -4.099 0.149 16
5.2319999 -4.3660002 0.264 15
5.598 -4.6680002 0.396 15
6.0650001 -5.0580001 0.55199999 20
6.664 -5.5609999 0.74299997 19
7.217 -6.0320001 0.95300001 18
4.8920002 -4.0749998 0.145 16
5.217 -4.3390002 0.259 14
5.5819998 -4.638 0.38999999 15
6.0450001 -5.0219998 0.54500002 20
6.6290002 -5.5100002 0.73299998 20
7.197 -5.9889998 0.94400001 19
4.8850002 -4.053 0.141 17
5.1999998 -4.3070002 0.255 15
5.5630002 -4.6030002 0.38499999 15
6.0310001 -4.987 0.53899997 19
6.6009998 -5.461 0.72500002 20
7.1690001 -5.9359999 0.93300003 19
4.8709998 -4.0240002 0.13699999 17
5.1830001 -4.2729998 0.25 15
5.5450001 -4.566 0.37900001 15
6.0149999 -4.9499998 0.53299999 19
6.5770001 -5.4130001 0.71600002 20
7.1609998 -5.8979998 0.92500001 18
4.8600001 -3.9960001 0.133 18
5.164 -4.2360001 0.245 14
5.5209999 -4.5219998 0.373 14
5.994 -4.9050002 0.52600002 16
6.546 -5.3559999 0.70700002 17
7.1459999 -5.8509998 0.917 16
4.848 -3.964 0.13 15
5.1550002 -4.2049999 0.241 14
5.5100002 -4.487 0.368 14
5.9489999 -4.8390002 0.51700002 14
6.5149999 -5.2979999 0.69800001 17
7.118 -5.79 0.90700001 16
4.8319998 -3.927 0.126 14
5.1360002 -4.1630001 0.237 16
5.4850001 -4.4380002 0.36300001 13
5.9109998 -4.776 0.509 15
6.4819999 -5.2350001 0.68900001 18
7.0830002 -5.7199998 0.89600003 17
4.8169999 -3.8889999 0.123 15
5.1220002 -4.1230001 0.233 15
5.473 -4.3969998 0.35800001 13
5.8889999 -4.7249999 0.50300002 14
6.4530001 -5.1729999 0.68099999 17
7.0469999 -5.6490002 0.88499999 16
0 6.1440001 0 0
0 0 0 0
0 0 0 0
0 0 0 255
4.8080001 -3.8540001 0.12 15
5.1059999 -4.0809999 0.229 15
5.4510002 -4.3470001 0.35299999 14
5.8660002 -4.6700001 0.49700001 14
6.4320002 -5.1160002 0.67299998 16
7.0159998 -5.5780001 0.87599999 19
4.7950001 -3.8150001 0.117 15
5.0929999 -4.039 0.226 16
5.4359999 -4.3000002 0.34799999 14
5.8400002 -4.6110001 0.49000001 14
6.3920002 -5.0419998 0.66399997 15
7 -5.5180001 0.86799997 19
4.7859998 -3.777 0.115 16
5.0770001 -3.993 0.222 16
5.4229999 -4.2529998 0.34400001 16
5.8109999 -4.5489998 0.484 14
6.3429999 -4.9580002 0.65399998 14
6.9819999 -5.454 0.86000001 18
4.7750001 -3.7349999 0.112 16
5.0650001 -3.9489999 0.21799999 16
5.408 -4.204 0.34 14
5.7909999 -4.4920001 0.479 14
6.3000002 -4.8790002 0.64499998 14
6.9580002 -5.3839998 0.852 17
4.7639999 -3.6930001 0.11 15
5.0489998 -3.9000001 0.215 17
5.3899999 -4.1500001 0.336 16
5.7639999 -4.427 0.47299999 16
6.2670002 -4.8060002 0.63800001 15
6.901 -5.2859998 0.83899999 15
4.7610002 -3.655 0.108 16
5.0450001 -3.858 0.213 16
5.3730001 -4.0960002 0.33199999 16
5.744 -4.368 0.46799999 15
6.2399998 -4.737 0.63099998 15
6.8249998 -5.1750002 0.82499999 14
4.7480001 -3.609 0.106 16
5.0279999 -3.8069999 0.20999999 17
5.362 -4.046 0.329 17
5.7280002 -4.3099999 0.463 16
6.2119999 -4.6659999 0.625 15
6.7779999 -5.0840001 0.815 14
4.7480001 -3.5710001 0.104 17
5.013 -3.7550001 0.208 18
5.3439999 -3.9890001 0.32499999 18
5.7059999 -4.2470002 0.45899999 15
6.1919999 -4.598 0.61900002 16
6.7420001 -5 0.80599999 16
4.7350001 -3.5220001 0.103 16
5.0079999 -3.7090001 0.206 18
5.3270001 -3.931 0.322 17
5.6900001 -4.1869998 0.45500001 17
6.1719999 -4.5310001 0.61400002 21
6.691 -4.9050002 0.796 16
4.7280002 -3.477 0.102 16
4.9980001 -3.6600001 0.204 18
5.3169999 -3.8789999 0.31999999 17
5.6739998 -4.1259999 0.45100001 18
6.138 -4.4520001 0.60699999 22
6.6479998 -4.8140001 0.787 16
4.7290001 -3.4360001 0.101 18
4.994 -3.6129999 0.20299999 18
5.3039999 -3.823 0.31799999 18
5.6609998 -4.0669999 0.44800001 16
6.1160002 -4.382 0.60299999 20
6.6220002 -4.7350001 0.77999997 16
4.7080002 -3.3800001 0.1 19
4.9879999 -3.5639999 0.20100001 19
5.2919998 -3.766 0.315 18
5.6479998 -4.006 0.44499999 17
6.0949998 -4.3109999 0.59799999 20
6.5840001 -4.6469998 0.773 17
4.7010002 -3.3310001 0.098999999 18
4.9809999 -3.5139999 0.2 18
5.2800002 -3.7090001 0.31299999 19
5.638 -3.947 0.44299999 17
6.0770001 -4.2420001 0.59399998 19
6.5650001 -4.572 0.76800001 16
4.7020001 -3.289 0.098999999 19
4.9710002 -3.46 0.199 17
5.2750001 -3.6559999 0.31200001 20
5.618 -3.8800001 0.44 18
6.0560002 -4.1700001 0.58999997 19
6.527 -4.4840002 0.75999999 19
4.6939998 -3.2390001 0.098999999 18
4.9689999 -3.411 0.199 18
5.2639999 -3.599 0.31099999 18
5.6149998 -3.8239999 0.43799999 16
6.0349998 -4.098 0.58600003 16
6.4920001 -4.3969998 0.75400001 17
4.691 -3.1919999 0.098999999 17
4.9710002 -3.3659999 0.199 17
5.2529998 -3.5420001 0.31 16
5.6040001 -3.763 0.43700001 16
6.0250001 -4.033 0.583 16
6.4970002 -4.3379998 0.75300002 15
0 6.1440001 0 0
0 0 0 0
0 0 0 0
0 0 0 255
4.6859999 -3.1440001 0.1 17
4.9549999 -3.3069999 0.199 16
5.2480001 -3.487 0.30899999 16
5.5890002 -3.6989999 0.435 16
6.0100002 -3.9649999 0.58099997 16
6.4829998 -4.2649999 0.74900001 15
4.6849999 -3.0969999 0.101 16
4.954 -3.2579999 0.199 16
5.2459998 -3.434 0.30899999 16
5.579 -3.638 0.433 18
5.9920001 -3.8940001 0.57800001 15
6.4650002 -4.1900001 0.74599999 15
4.6799998 -3.0480001 0.101 16
4.947 -3.204 0.199 16
5.243 -3.3800001 0.30899999 16
5.5770001 -3.5810001 0.433 16
5.9840002 -3.829 0.57700002 17
6.448 -4.1139998 0.74299997 14
4.6799998 -3.0009999 0.102 16
4.9429998 -3.1530001 0.2 16
5.2340002 -3.323 0.30899999 16
5.5689998 -3.5209999 0.43200001 18
5.9780002 -3.766 0.57599998 15
6.428 -4.0370002 0.73900002 14
4.6789999 -2.954 0.103 17
4.9429998 -3.1040001 0.20100001 16
5.2290001 -3.2679999 0.30899999 15
5.5570002 -3.4579999 0.43200001 17
5.9679999 -3.7 0.57499999 16
6.4159999 -3.9660001 0.73699999 15
4.6820002 -2.9089999 0.105 17
4.9180002 -3.039 0.20100001 17
5.23 -3.2160001 0.31 16
5.5539999 -3.4000001 0.43200001 16
5.954 -3.632 0.57300001 16
6.4000001 -3.892 0.73500001 15
4.677 -2.858 0.106 17
4.927 -2.9949999 0.20299999 18
5.224 -3.1600001 0.31099999 16
5.5450001 -3.339 0.43200001 16
5.948 -3.5680001 0.57300001 15
6.3909998 -3.8210001 0.73400003 15
4.6810002 -2.813 0.108 18
4.9310002 -2.947 0.204 18
5.2309999 -3.1110001 0.31200001 16
5.5409999 -3.2809999 0.43200001 16
5.9460001 -3.506 0.57300001 17
6.3790002 -3.7490001 0.73199999 16
4.6820002 -2.766 0.11 18
4.9289999 -2.8959999 0.206 18
5.2270002 -3.0550001 0.31400001 17
5.5380001 -3.2219999 0.433 17
5.941 -3.4430001 0.57300001 17
6.368 -3.678 0.73100001 15
4.6760001 -2.7149999 0.112 16
4.9299998 -2.846 0.207 18
5.2270002 -3.0009999 0.315 17
5.5380001 -3.1659999 0.43399999 18
5.9359999 -3.3789999 0.574 17
6.349 -3.602 0.72899997 15
4.6830001 -2.671 0.114 19
4.9250002 -2.793 0.20900001 17
5.2049999 -2.9360001 0.315 19
5.5409999 -3.1110001 0.43599999 17
5.9349999 -3.319 0.574 17
6.348 -3.5369999 0.73000002 16
4.6820002 -2.622 0.117 18
4.934 -2.747 0.212 18
5.2010002 -2.881 0.317 20
5.533 -3.0510001 0.43700001 17
5.928 -3.2550001 0.57499999 17
6.3379998 -3.4679999 0.72899997 16
4.6869998 -2.5769999 0.119 17
4.9320002 -2.6960001 0.214 18
5.2020001 -2.829 0.31900001 18
5.5430002 -3 0.43900001 17
5.9299998 -3.1949999 0.57599998 17
6.3340001 -3.401 0.73000002 16
4.6880002 -2.529 0.122 18
4.9359999 -2.648 0.21600001 17
5.2220001 -2.786 0.322 16
5.546 -2.9460001 0.44100001 18
5.9219999 -3.132 0.57700002 17
6.3330002 -3.3369999 0.73100001 17
4.6859999 -2.4809999 0.124 19
4.9310002 -2.595 0.21799999 18
5.2309999 -2.7379999 0.32499999 16
5.5430002 -2.8870001 0.44299999 17
5.9239998 -3.072 0.579 16
6.323 -3.267 0.73100001 16
4.6890001 -2.4349999 0.127 20
4.934 -2.5469999 0.221 18
5.211 -2.675 0.32600001 19
5.5409999 -2.8299999 0.44499999 17
5.921 -3.0109999 0.57999998 18
6.3189998 -3.201 0.73199999 17
0 6.1440001 0 0
0 0 0 0
0 0 0 0
0 0 0 255
4.6890001 -2.3859999 0.13 20
4.9460001 -2.5020001 0.22400001 19
5.217 -2.625 0.32800001 21
5.5510001 -2.779 0.447 18
0 0 0 0
6.323 -3.1389999 0.73400003 14
4.691 -2.339 0.133 15
4.9390001 -2.448 0.226 16
5.2249999 -2.575 0.331 18
5.5300002 -2.7119999 0.44800001 17
5.9289999 -2.895 0.58499998 15
6.3189998 -3.073 0.73500001 15
4.6950002 -2.293 0.13600001 17
4.9439998 -2.4000001 0.229 16
5.2150002 -2.5179999 0.333 17
5.5380001 -2.661 0.45100001 16
5.9239998 -2.8340001 0.58700001 15
6.3239999 -3.0120001 0.73799998 15
4.7010002 -2.2490001 0.139 18
4.9489999 -2.3540001 0.23199999 16
5.2270002 -2.471 0.33700001 18
5.5320001 -2.6029999 0.45300001 17
5.9369998 -2.78 0.58999997 15
0 0 0 0
4.7020001 -2.2019999 0.142 17
4.9499998 -2.3039999 0.235 16
5.2249999 -2.418 0.33899999 17
5.5349998 -2.549 0.456 17
5.9299998 -2.7179999 0.59200001 13
6.3239999 -2.8859999 0.741 15
4.7020001 -2.155 0.145 16
4.9569998 -2.257 0.23899999 16
5.2270002 -2.3670001 0.34200001 17
5.539 -2.4949999 0.458 17
5.9349999 -2.661 0.59399998 15
6.3280001 -2.825 0.74400002 15
4.7059999 -2.108 0.148 17
4.9590001 -2.2079999 0.242 16
5.2379999 -2.319 0.34599999 19
5.553 -2.4449999 0.46200001 7
5.9369998 -2.602 0.597 15
6.3260002 -2.7609999 0.74599999 15
4.7129998 -2.0650001 0.152 17
4.9640002 -2.161 0.245 16
5.237 -2.267 0.34799999 19
5.5549998 -2.392 0.465 7
5.927 -2.54 0.59899998 17
6.3299999 -2.701 0.74900001 15
4.71 -2.017 0.155 18
4.9640002 -2.112 0.248 17
5.244 -2.2179999 0.352 19
5.5770001 -2.3469999 0.47 14
0 0 0 0
6.3319998 -2.6400001 0.75099999 15
4.7080002 -1.969 0.15800001 18
4.9679999 -2.0650001 0.25099999 17
5.2459998 -2.168 0.35499999 18
5.586 -2.296 0.47299999 9
5.9219999 -2.4219999 0.60299999 17
6.3390002 -2.5810001 0.75400001 16
4.7160001 -1.925 0.161 18
4.973 -2.017 0.25400001 15
5.2480001 -2.1170001 0.35800001 18
5.5780001 -2.2379999 0.47499999 13
5.9499998 -2.375 0.60799998 15
6.3270001 -2.5139999 0.755 15
4.7160001 -1.8789999 0.16500001 22
4.9770002 -1.971 0.25799999 16
5.257 -2.069 0.361 17
5.5689998 -2.1800001 0.477 17
5.9510002 -2.3169999 0.611 15
6.335 -2.4549999 0.759 15
4.724 -1.836 0.168 17
4.9879999 -1.926 0.26100001 16
5.256 -2.017 0.36399999 18
5.5609999 -2.122 0.479 17
5.9349999 -2.253 0.61199999 17
6.3319998 -2.3929999 0.76099998 15
4.7290001 -1.7920001 0.171 18
4.9920001 -1.8789999 0.26499999 16
5.2610002 -1.9680001 0.36700001 18
5.5679998 -2.0710001 0.48300001 17
5.9359999 -2.197 0.61500001 17
6.336 -2.3340001 0.764 17
4.7480001 -1.753 0.175 16
4.9990001 -1.8329999 0.26800001 15
5.2620001 -1.9170001 0.37 17
5.5749998 -2.02 0.486 18
5.9460001 -2.1429999 0.61799997 17
6.3270001 -2.27 0.76499999 17
4.7490001 -1.707 0.178 15
5.0009999 -1.786 0.271 15
5.2620001 -1.867 0.373 16
5.572 -1.966 0.48800001 17
5.9549999 -2.0899999 0.62199998 15
6.3449998 -2.217 0.76999998 15
0 6.1440001 0 0
0 0 0 0
0 0 0 0
0 0 0 255
4.7589998 -1.665 0.182 14
4.9980001 -1.737 0.27399999 15
5.2709999 -1.8200001 0.377 17
5.5809999 -1.916 0.49200001 19
5.954 -2.033 0.625 17
6.3509998 -2.158 0.773 15
4.7610002 -1.62 0.185 15
5.0019999 -1.691 0.27700001 15
5.2709999 -1.77 0.37900001 16
5.5819998 -1.864 0.495 18
5.9549999 -1.978 0.62699997 17
6.3509998 -2.099 0.77499998 15
4.7550001 -1.573 0.18799999 17
4.9970002 -1.642 0.28 15
5.2740002 -1.722 0.382 17
5.5840001 -1.812 0.49700001 17
5.9499998 -1.92 0.62900001 17
6.3369999 -2.0350001 0.77600002 15
4.7509999 -1.527 0.191 16
5.013 -1.6 0.28299999 14
5.2719998 -1.6720001 0.38499999 15
5.5879998 -1.761 0.50099999 16
5.9510002 -1.865 0.63200003 15
6.3530002 -1.9809999 0.77999997 14
4.7680001 -1.487 0.19400001 13
5.0139999 -1.553 0.28600001 14
5.2779999 -1.624 0.38800001 14
5.592 -1.71 0.50400001 16
5.9580002 -1.812 0.63499999 15
6.355 -1.923 0.78299999 15
4.7649999 -1.442 0.197 14
5.0219998 -1.5089999 0.289 14
5.2820001 -1.577 0.391 14
5.5949998 -1.66 0.50599998 16
5.9640002 -1.7589999 0.63800001 15
6.3559999 -1.864 0.78600001 16
4.7670002 -1.398 0.2 14
5.0219998 -1.462 0.292 14
5.2859998 -1.528 0.39399999 15
5.599 -1.609 0.509 15
5.961 -1.7029999 0.63999999 15
6.3559999 -1.806 0.78799999 16
4.7589998 -1.351 0.20200001 17
5.02 -1.415 0.29499999 13
5.2839999 -1.479 0.396 16
5.598 -1.557 0.51200002 14
5.9710002 -1.651 0.64399999 16
6.355 -1.747 0.79000002 15
4.77 -1.3099999 0.205 16
5.0250001 -1.37 0.29800001 15
5.2849998 -1.431 0.39899999 15
5.6030002 -1.507 0.514 15
5.9749999 -1.597 0.64700001 15
6.3670001 -1.692 0.79400003 16
4.7740002 -1.267 0.208 15
5.027 -1.324 0.30000001 15
5.2989998 -1.386 0.403 15
5.6040001 -1.456 0.51700002 16
5.9710002 -1.541 0.648 15
6.3670001 -1.635 0.796 16
4.7810001 -1.225 0.211 16
5.0310001 -1.279 0.303 16
5.2979999 -1.3380001 0.405 15
5.6090002 -1.4069999 0.51999998 17
5.9770002 -1.489 0.65100002 16
6.3720002 -1.5779999 0.79900002 16
4.7810001 -1.181 0.213 16
5.033 -1.234 0.30500001 15
5.302 -1.291 0.40700001 16
5.6100001 -1.3559999 0.52200001 16
5.98 -1.436 0.65399998 15
6.3639998 -1.5190001 0.80000001 17
4.7839999 -1.1390001 0.21600001 17
5.0380001 -1.1900001 0.308 16
5.3010001 -1.243 0.41 17
5.6100001 -1.306 0.52399999 15
5.9720001 -1.381 0.65499997 16
6.362 -1.462 0.801 16
4.7820001 -1.095 0.21799999 17
5.0430002 -1.146 0.31 16
5.3070002 -1.197 0.412 17
5.6139998 -1.257 0.52600002 15
5.9720001 -1.3279999 0.65700001 17
6.369 -1.4069999 0.80400002 16
4.8010001 -1.057 0.221 21
5.0380001 -1.1 0.31200001 17
5.3070002 -1.15 0.414 16
5.6199999 -1.2079999 0.52899998 16
5.9780002 -1.276 0.65899998 16
6.3699999 -1.351 0.80599999 16
4.7969999 -1.013 0.223 19
5.0440001 -1.056 0.315 17
5.3099999 -1.103 0.41600001 16
5.618 -1.158 0.53100002 15
5.9819999 -1.225 0.662 16
6.369 -1.295 0.80800003 15
0 6.1440001 0 0
0 0 0 0
0 0 0 0
0 0 0 255
4.7930002 -0.97000003 0.22499999 18
5.0469999 -1.012 0.317 15
5.3080001 -1.056 0.41800001 17
5.6160002 -1.109 0.53200001 16
5.9790001 -1.1720001 0.66299999 16
6.3699999 -1.24 0.80900002 16
4.7919998 -0.92699999 0.227 19
5.046 -0.96799999 0.31900001 17
5.3169999 -1.011 0.421 16
5.619 -1.0599999 0.53399998 15
5.9809999 -1.12 0.66500002 15
6.3670001 -1.183 0.81099999 16
4.7969999 -0.88599998 0.229 18
5.0489998 -0.92400002 0.32100001 16
5.3130002 -0.96399999 0.42199999 16
5.625 -1.012 0.537 15
5.98 -1.068 0.667 16
6.368 -1.128 0.81300002 15
4.8049998 -0.84500003 0.23100001 19
5.0469999 -0.87900001 0.322 16
5.3169999 -0.91799998 0.42399999 18
5.6230001 -0.963 0.53799999 14
5.9840002 -1.016 0.66900003 16
6.3699999 -1.073 0.81400001 16
4.7979999 -0.80199999 0.23199999 17
5.0510001 -0.83600003 0.324 15
5.3169999 -0.87199998 0.42500001 18
5.6230001 -0.91399997 0.54000002 15
5.9829998 -0.96399999 0.67000002 16
6.3670001 -1.017 0.815 16
4.8039999 -0.76099998 0.234 18
5.04 -0.79000002 0.32499999 15
5.316 -0.82599998 0.42699999 15
5.6240001 -0.86500001 0.54100001 14
5.9850001 -0.91299999 0.671 15
6.368 -0.963 0.81699997 15
4.8000002 -0.71899998 0.235 19
5.0409999 -0.74699998 0.32600001 17
5.3179998 -0.77999997 0.42899999 16
5.6199999 -0.81599998 0.542 14
5.9819999 -0.861 0.67299998 15
6.3660002 -0.90899998 0.81800002 15
4.802 -0.67799997 0.237 17
5.0419998 -0.704 0.32800001 15
5.3189998 -0.73500001 0.43000001 15
5.625 -0.76999998 0.54400003 15
5.9790001 -0.81 0.67299998 16
6.3639998 -0.85500002 0.81900001 16
4.7979999 -0.63599998 0.23800001 17
5.052 -0.662 0.33000001 16
5.316 -0.68900001 0.43099999 14
5.6230001 -0.72100002 0.54500002 15
5.9829998 -0.75999999 0.67500001 15
6.3559999 -0.79900002 0.81900001 16
4.802 -0.59500003 0.23899999 17
5.0580001 -0.62 0.331 16
5.3179998 -0.64399999 0.43200001 16
5.6240001 -0.67400002 0.546 14
5.973 -0.708 0.67500001 15
6.3660002 -0.74699998 0.82099998 15
4.7989998 -0.55400002 0.23999999 17
5.0500002 -0.57599998 0.33199999 15
5.3169999 -0.60000002 0.433 15
5.6149998 -0.62599999 0.546 15
5.9759998 -0.65899998 0.676 16
6.3530002 -0.69300002 0.81999999 15
4.8039999 -0.51499999 0.242 16
5.0500002 -0.53399998 0.333 15
5.3179998 -0.55599999 0.43399999 15
5.6129999 -0.579 0.54699999 15
5.9780002 -0.60900003 0.67799997 15
6.3600001 -0.64099997 0.82200003 15
4.8070002 -0.47499999 0.243 16
5.0489998 -0.49200001 0.33399999 17
5.3109999 -0.51099998 0.435 16
5.6059999 -0.53200001 0.54699999 17
5.974 -0.56 0.67799997 15
6.3600001 -0.588 0.82300001 16
4.809 -0.435 0.244 20
5.0440001 -0.44999999 0.33399999 15
5.3070002 -0.46599999 0.435 15
5.6009998 -0.48500001 0.54799998 16
5.967 -0.509 0.67799997 17
6.342 -0.53399998 0.82200003 35
4.8109999 -0.39500001 0.245 18
5.0419998 -0.40799999 0.33500001 16
5.3070002 -0.42199999 0.43599999 16
5.6069999 -0.43900001 0.54900002 14
5.9660001 -0.46000001 0.67900002 15
6.335 -0.48199999 0.82099998 37
4.8080001 -0.35499999 0.245 19
5.0339999 -0.366 0.33500001 16
5.3049998 -0.37900001 0.43599999 16
5.598 -0.39300001 0.54900002 16
5.9720001 -0.412 0.68000001 19
6.3319998 -0.43000001 0.82200003 36
0 6.1440001 0 0
0 0 0 0
0 0 0 0
0 0 0 255
4.8039999 -0.31600001 0.24600001 18
5.0370002 -0.32499999 0.336 16
5.3099999 -0.336 0.43799999 17
5.598 -0.347 0.54900002 15
5.9569998 -0.36300001 0.67900002 33
6.3049998 -0.377 0.81900001 22
4.7989998 -0.27599999 0.24600001 19
5.0300002 -0.28299999 0.336 16
5.3010001 -0.292 0.43700001 15
5.592 -0.30199999 0.55000001 15
5.9559999 -0.315 0.67900002 34
6.3379998 -0.32699999 0.824 15
4.8010001 -0.237 0.24699999 18
5.0240002 -0.242 0.336 16
5.2989998 -0.249 0.43799999 17
5.5970001 -0.257 0.55000001 20
5.9580002 -0.266 0.68000001 35
6.329 -0.27599999 0.82300001 15
4.7969999 -0.198 0.24699999 21
5.0219998 -0.20200001 0.33700001 17
5.29 -0.206 0.43799999 17
5.5869999 -0.212 0.55000001 36
5.9260001 -0.21799999 0.67699999 21
6.323 -0.22499999 0.82300001 15
4.7969999 -0.16 0.248 18
5.0209999 -0.161 0.33700001 17
5.2950001 -0.164 0.43799999 17
5.586 -0.167 0.551 33
5.947 -0.171 0.68000001 16
6.3249998 -0.175 0.824 15
4.7950001 -0.121 0.248 18
5.0219998 -0.121 0.338 17
5.3080001 -0.122 0.44 24
5.585 -0.122 0.551 34
5.9460001 -0.123 0.68000001 15
6.3270001 -0.124 0.82499999 16
4.7909999 -0.082999997 0.248 18
5.0180001 -0.081 0.338 19
5.2859998 -0.079000004 0.43900001 40
5.5609999 -0.077 0.54900002 26
5.9439998 -0.075999998 0.68099999 15
6.323 -0.074000001 0.82499999 16
4.789 -0.044 0.248 17
5.0100002 -0.041000001 0.338 18
5.2810001 -0.037 0.43900001 40
5.573 -0.033 0.55000001 17
5.941 -0.028999999 0.68099999 17
6.316 -0.025 0.824 17
4.7849998 -0.0060000001 0.248 20
5.0250001 -0.001 0.33899999 31
5.2800002 0.0040000002 0.43900001 39
5.5739999 0.0099999998 0.551 17
5.9400001 0.017000001 0.68099999 16
6.316 0.024 0.82499999 17
4.783 0.029999999 0.248 21
5.0139999 0.037 0.33899999 41
5.2750001 0.044 0.43900001 35
5.573 0.052999999 0.551 16
5.928 0.063000001 0.68000001 18
6.3070002 0.074000001 0.824 17
4.7820001 0.068000004 0.249 21
5.0209999 0.077 0.33899999 35
5.2709999 0.086000003 0.43900001 19
5.5689998 0.097000003 0.551 15
5.9260001 0.109 0.68000001 16
6.3049998 0.122 0.824 17
4.776 0.105 0.249 21
5.0180001 0.116 0.33899999 30
5.2719998 0.127 0.43900001 18
5.5689998 0.139 0.55199999 15
5.915 0.154 0.67900002 16
6.2919998 0.171 0.82300001 17
4.777 0.142 0.249 20
4.9970002 0.154 0.338 18
5.2670002 0.167 0.43900001 18
5.5669999 0.183 0.55199999 15
5.9190001 0.2 0.68000001 16
6.2989998 0.22 0.824 16
4.7750001 0.17900001 0.249 22
4.987 0.192 0.338 19
5.2670002 0.208 0.44 17
5.559 0.22499999 0.551 19
5.9159999 0.245 0.68099999 17
6.3060002 0.26800001 0.82599998 16
4.7719998 0.21600001 0.249 21
4.987 0.23 0.338 18
5.2620001 0.248 0.44 17
5.5560002 0.26699999 0.55199999 17
5.9169998 0.28999999 0.68099999 16
6.2950001 0.315 0.82499999 17
4.7709999 0.252 0.25 23
4.987 0.26800001 0.33899999 19
5.2639999 0.287 0.44 17
5.5630002 0.30899999 0.55299997 16
5.9089999 0.33399999 0.68099999 16
6.2940001 0.36199999 0.82599998 16
0 6.1440001 0 0
0 0 0 0
0 0 0 0
0 0 0 255
4.7670002 0.287 0.25 21
4.9920001 0.30500001 0.33899999 20
5.2620001 0.32699999 0.44 18
5.5469999 0.34999999 0.55199999 17
5.9070001 0.37799999 0.68099999 16
6.289 0.40900001 0.82599998 16
4.7600002 0.322 0.249 22
4.994 0.34200001 0.34 21
5.2579999 0.366 0.44 19
5.5539999 0.391 0.55299997 16
5.8940001 0.421 0.68000001 16
6.2950001 0.456 0.82700002 17
4.7589998 0.35800001 0.25 22
4.9829998 0.37900001 0.33899999 19
5.2490001 0.40400001 0.44 20
5.552 0.43200001 0.55299997 16
5.9060001 0.46599999 0.68199998 16
6.29 0.50199997 0.82700002 15
4.7620001 0.39300001 0.25 21
4.9819999 0.41600001 0.34 18
5.2519999 0.44299999 0.44100001 17
5.5500002 0.47299999 0.55400002 15
5.9099998 0.50999999 0.68400002 16
6.2839999 0.54799998 0.82800001 14
4.7589998 0.428 0.25099999 23
4.9780002 0.45199999 0.34 18
5.2509999 0.48100001 0.442 18
5.5430002 0.51300001 0.55400002 17
5.9060001 0.55199999 0.68400002 15
6.2820001 0.59399998 0.82800001 12
4.7519999 0.46200001 0.25099999 20
4.9819999 0.48899999 0.34099999 20
5.2519999 0.51999998 0.442 18
5.5419998 0.55299997 0.55500001 18
5.9050002 0.59500003 0.685 16
6.289 0.63999999 0.82999998 15
4.7579999 0.49700001 0.252 20
4.9860001 0.52499998 0.34200001 22
5.2490001 0.55800003 0.44299999 18
5.5440001 0.59399998 0.55599999 16
5.8940001 0.63700002 0.685 17
6.29 0.68599999 0.83200002 15
4.7519999 0.53100002 0.252 19
4.973 0.56 0.34200001 18
5.2459998 0.59500003 0.44400001 19
5.54 0.63300002 0.55599999 17
5.902 0.68000001 0.68699998 15
6.2909999 0.73100001 0.833 16
4.75 0.565 0.252 24
4.9699998 0.59500003 0.34299999 17
5.2519999 0.63300002 0.44499999 17
5.546 0.67400002 0.55800003 16
5.8959999 0.72100002 0.68699998 16
6.2880001 0.77600002 0.83399999 15
4.7470002 0.59899998 0.25299999 21
4.974 0.63099998 0.34400001 18
5.2550001 0.671 0.44600001 19
5.5500002 0.713 0.56 18
5.8969998 0.76300001 0.68900001 16
6.2880001 0.81999999 0.83600003 14
4.7410002 0.63099998 0.25400001 21
4.9790001 0.66600001 0.345 18
5.244 0.70599997 0.44600001 19
5.5440001 0.75099999 0.56 18
5.895 0.80400002 0.69 16
6.2820001 0.86299998 0.83700001 15
4.7480001 0.66500002 0.255 22
4.9749999 0.69999999 0.34599999 18
5.2529998 0.74299997 0.44800001 18
5.5450001 0.79000002 0.56199998 18
5.915 0.847 0.69400001 17
6.2680001 0.90399998 0.83700001 14
4.744 0.69700003 0.25600001 19
4.967 0.73299998 0.347 19
5.2480001 0.77899998 0.44999999 19
5.5489998 0.82800001 0.56400001 17
5.9109998 0.88700002 0.69599998 16
6.2849998 0.94999999 0.84100002 14
4.744 0.72899997 0.257 21
4.98 0.76899999 0.34900001 20
5.2490001 0.81400001 0.45100001 19
5.553 0.866 0.56599998 18
5.9039998 0.926 0.69700003 16
6.3010001 0.995 0.84500003 15
4.744 0.76099998 0.25799999 21
4.973 0.801 0.34999999 19
5.2550001 0.85100001 0.45300001 20
5.559 0.90399998 0.56900001 16
5.9099998 0.96700001 0.69999999 16
6.3049998 1.038 0.84899998 16
4.744 0.79299998 0.25999999 21
4.9920001 0.838 0.35299999 19
5.2550001 0.88599998 0.45500001 20
5.5609999 0.94199997 0.57099998 17
5.9120002 1.007 0.70200002 15
6.323 1.0829999 0.85399997 13
0 6.1440001 0 0
0 0 0 0
0 0 0 0
0 0 0 255
4.7550001 0.82599998 0.26199999 21
4.9990001 0.87199998 0.35499999 19
5.2690001 0.92199999 0.458 20
5.5749998 0.98100001 0.57499999 16
5.9239998 1.0470001 0.70599997 16
6.3179998 1.123 0.85600001 16
4.7420001 0.85399997 0.26300001 18
4.9959998 0.903 0.35699999 18
5.2639999 0.95599997 0.46000001 18
5.5710001 1.016 0.57599998 16
5.9400001 1.089 0.71100003 16
6.322 1.165 0.85900003 16
4.7550001 0.88700002 0.266 21
4.9990001 0.93599999 0.359 19
5.2659998 0.99000001 0.463 19
5.5799999 1.054 0.57999998 16
5.9349999 1.126 0.713 14
6.3319998 1.207 0.86400002 15
4.7600002 0.91799998 0.26800001 21
5.006 0.96899998 0.36199999 19
5.2690001 1.024 0.465 18
5.585 1.09 0.583 17
5.9499998 1.1670001 0.71799999 17
6.3569999 1.253 0.87099999 13
4.7600002 0.94800001 0.27000001 19
5.0100002 1.001 0.36399999 18
5.2849998 1.0599999 0.46900001 18
5.5939999 1.127 0.58700001 16
5.954 1.205 0.722 17
6.375 1.296 0.87699997 14
4.7680001 0.97899997 0.273 22
5.02 1.034 0.368 18
5.29 1.094 0.47299999 16
5.6069999 1.164 0.59200001 16
5.9569998 1.242 0.72600001 15
6.3600001 1.332 0.87900001 15
4.7740002 1.0089999 0.27599999 19
5.0279999 1.066 0.37099999 18
5.3000002 1.128 0.47600001 16
5.6199999 1.2 0.59600002 16
5.9840002 1.284 0.73199999 16
6.3920002 1.378 0.88700002 15
4.7729998 1.038 0.278 20
5.033 1.097 0.37400001 18
5.3070002 1.161 0.47999999 18
5.6259999 1.235 0.60000002 16
5.9650002 1.3150001 0.73400003 14
6.4000001 1.418 0.89200002 16
4.7810001 1.067 0.28099999 16
5.0370002 1.128 0.37799999 17
5.3119998 1.193 0.484 18
5.638 1.271 0.60500002 16
6.0079999 1.36 0.74299997 16
6.4219999 1.46 0.89999998 13
4.7919998 1.098 0.285 21
5.0500002 1.16 0.382 16
5.3179998 1.225 0.48800001 15
5.6440001 1.304 0.61000001 16
5.9780002 1.387 0.74400002 14
6.4439998 1.502 0.90799999 14
4.7950001 1.125 0.289 19
5.0619998 1.191 0.38600001 17
5.3369999 1.2589999 0.49399999 16
5.658 1.34 0.616 16
6.0289998 1.434 0.755 15
6.46 1.543 0.91600001 14
4.7989998 1.153 0.292 19
5.0689998 1.22 0.391 14
5.3470001 1.291 0.49900001 16
5.6669998 1.374 0.62099999 17
6.053 1.473 0.76300001 18
6.4660001 1.58 0.92199999 14
4.8239999 1.1849999 0.29800001 16
5.0799999 1.25 0.39500001 19
5.3670001 1.325 0.505 16
5.6789999 1.4069999 0.62699997 17
6.0700002 1.51 0.76999998 17
6.4970002 1.623 0.93199998 16
4.8270001 1.211 0.301 16
5.0900002 1.28 0.40000001 18
5.375 1.355 0.50999999 16
5.6880002 1.439 0.63300002 15
6.0869999 1.546 0.77700001 16
6.5079999 1.66 0.93900001 14
4.8340001 1.237 0.30599999 19
5.1059999 1.3099999 0.40599999 18
5.3870001 1.386 0.51599997 17
5.711 1.474 0.64099997 17
6.1020002 1.581 0.78500003 16
6.5349998 1.7 0.949 14
4.849 1.265 0.31099999 17
5.118 1.3380001 0.41100001 16
5.3990002 1.416 0.52200001 17
5.73 1.508 0.648 17
6.1269999 1.618 0.79400003 16
6.5560002 1.739 0.95899999 14
0 6.1440001 0 0
0 0 0 0
0 0 0 0
0 0 0 255
4.8639998 1.293 0.31600001 18
5.1339998 1.367 0.417 17
5.4070001 1.444 0.52700001 17
5.7379999 1.5369999 0.65399998 17
6.145 1.652 0.80199999 17
6.585 1.778 0.96899998 15
4.875 1.318 0.32100001 18
5.152 1.396 0.42300001 15
5.428 1.475 0.53500003 16
5.757 1.569 0.662 16
6.1849999 1.692 0.81400001 15
6.6110001 1.816 0.98000002 14
4.8839998 1.342 0.32699999 19
5.1630001 1.4220001 0.42899999 17
5.447 1.505 0.542 17
5.7849998 1.603 0.671 17
6.1999998 1.724 0.82200003 15
6.6389999 1.854 0.99199998 14
4.901 1.368 0.33199999 17
5.1719999 1.447 0.435 15
5.4590001 1.5319999 0.54900002 16
5.7919998 1.63 0.67799997 16
6.2210002 1.757 0.83200002 15
6.665 1.891 1.003 15
4.9239998 1.396 0.33899999 18
5.1929998 1.475 0.442 15
5.48 1.561 0.55699998 17
5.8169999 1.6619999 0.68699998 16
6.2449999 1.791 0.84200001 14
6.6939998 1.927 1.015 14
4.9390001 1.419 0.345 18
5.2129998 1.501 0.449 16
5.5089998 1.591 0.56599998 17
5.8390002 1.692 0.69599998 17
6.2810001 1.826 0.85399997 15
6.723 1.9630001 1.027 15
4.9530001 1.442 0.35100001 16
5.223 1.524 0.456 16
5.527 1.617 0.574 17
5.8940001 1.73 0.70899999 15
6.303 1.857 0.86400002 15
6.7490001 1.9960001 1.039 15
4.9749999 1.467 0.35800001 15
5.2360001 1.5470001 0.463 15
5.5489998 1.6440001 0.58200002 18
5.8979998 1.753 0.71700001 18
6.3270001 1.887 0.875 14
6.7810001 2.0309999 1.052 15
4.9899998 1.488 0.36500001 16
5.257 1.572 0.47099999 15
5.5710001 1.67 0.59100002 17
5.928 1.7819999 0.727 17
6.3600001 1.919 0.88700002 14
6.8200002 2.066 1.066 14
5.0050001 1.5089999 0.37200001 16
5.2750001 1.594 0.479 16
5.5819998 1.691 0.59899998 18
5.9439998 1.807 0.73699999 17
6.3920002 1.95 0.89899999 15
6.8610001 2.102 1.081 14
5.0240002 1.53 0.37900001 15
5.3000002 1.618 0.48699999 16
5.6040001 1.716 0.60799998 17
5.9889998 1.839 0.75 15
6.4239998 1.98 0.912 14
6.9000001 2.1359999 1.096 13
5.0479999 1.552 0.38699999 14
5.3200002 1.64 0.495 16
5.6269999 1.739 0.61699998 16
6.006 1.862 0.759 15
6.4619999 2.0109999 0.926 15
6.9369998 2.168 1.1109999 13
5.0650001 1.571 0.39399999 14
5.342 1.661 0.50400001 16
5.6500001 1.761 0.62699997 17
6.0320001 1.886 0.76999998 15
6.4840002 2.0350001 0.93699998 15
6.9770002 2.1989999 1.127 14
5.086 1.59 0.40200001 15
5.368 1.682 0.51300001 16
5.6810002 1.785 0.63700002 17
6.059 1.91 0.78100002 15
6.5229998 2.0639999 0.95099998 16
7.0219998 2.2309999 1.143 14
5.098 1.605 0.40900001 17
5.3889999 1.701 0.52200001 17
5.7059999 1.806 0.64700001 18
6.0869999 1.933 0.792 15
6.552 2.0880001 0.96399999 16
7.0669999 2.2620001 1.16 15
5.1329999 1.627 0.41800001 15
5.4029999 1.717 0.52999997 16
5.7509999 1.832 0.65899998 15
6.1170001 1.955 0.80400002 15
6.592 2.115 0.97799999 15
7.1020002 2.2880001 1.174 15
0 6.1440001 0 0
0 0 0 0
0 0 0 0
0 0 0 255
5.1420002 1.6390001 0.42500001 15
5.427 1.734 0.53899997 16
5.743 1.84 0.66500002 16
6.1469998 1.976 0.81599998 16
6.6230001 2.1370001 0.991 16
7.1430001 2.3150001 1.1900001 14
5.1609998 1.653 0.433 16
5.4450002 1.749 0.54699999 16
5.7690001 1.858 0.676 16
6.184 1.998 0.829 14
6.6599998 2.1600001 1.005 15
7.1950002 2.3440001 1.209 14
5.1859999 1.669 0.442 16
5.4829998 1.7690001 0.55800003 17
5.8070002 1.878 0.68699998 16
6.2069998 2.0139999 0.83899999 15
6.698 2.1819999 1.0190001 16
7.2319999 2.3670001 1.224 13
5.2119999 1.683 0.44999999 16
5.4980001 1.78 0.56599998 17
5.8530002 1.9 0.69999999 15
6.237 2.0320001 0.85100001 15
6.7340002 2.2019999 1.033 14
7.276 2.3900001 1.2410001 13
5.2280002 1.693 0.458 16
5.5240002 1.793 0.57499999 18
5.881 1.915 0.71100003 15
6.277 2.0510001 0.86400002 14
6.7740002 2.2219999 1.048 15
7.3189998 2.411 1.258 12
5.2509999 1.704 0.46599999 16
5.5500002 1.806 0.58499998 18
5.8889999 1.9220001 0.71899998 17
6.3109999 2.066 0.87699997 15
6.8049998 2.237 1.061 15
7.3540001 2.428 1.273 12
5.2680001 1.712 0.47400001 16
5.5710001 1.8150001 0.59299999 18
5.9260001 1.937 0.73000002 16
6.3369999 2.0780001 0.88800001 15
6.8410001 2.253 1.075 15
7.401 2.448 1.29 12
5.2810001 1.7180001 0.48100001 16
5.5900002 1.823 0.602 17
5.9559999 1.948 0.741 15
6.3670001 2.0899999 0.89999998 16
6.8730001 2.2650001 1.0880001 15
7.448 2.4649999 1.307 12
5.309 1.727 0.48899999 16
5.6069999 1.8279999 0.61000001 17
5.973 1.954 0.75 15
6.3920002 2.098 0.91000003 16
6.9050002 2.276 1.101 15
7.4860001 2.4779999 1.323 12
5.3319998 1.733 0.49700001 16
5.6279998 1.834 0.61799997 17
6.0009999 1.962 0.75999999 15
6.421 2.1059999 0.92199999 16
6.947 2.2880001 1.1160001 14
7.5250001 2.49 1.3380001 12
5.3499999 1.7359999 0.50400001 17
5.6550002 1.84 0.62699997 17
6.0300002 1.9680001 0.76999998 15
6.4549999 2.115 0.93300003 15
6.9809999 2.296 1.1289999 14
7.559 2.4979999 1.352 12
5.3649998 1.738 0.51200002 17
5.6830001 1.846 0.63599998 16
6.0430002 1.969 0.778 15
6.487 2.1210001 0.94499999 15
7.0149999 2.303 1.142 15
7.5970001 2.5050001 1.367 12
5.388 1.74 0.51899999 17
5.6989999 1.846 0.64399999 17
6.0739999 1.973 0.78799999 14
6.5139999 2.1240001 0.95499998 15
7.0599999 2.3110001 1.156 13
7.6399999 2.513 1.383 12
5.4000001 1.738 0.52499998 17
5.7399998 1.852 0.65399998 15
6.092 1.972 0.796 14
6.5469999 2.1270001 0.96600002 15
7.0869999 2.312 1.1670001 14
7.671 2.5150001 1.396 12
5.421 1.737 0.53200001 17
5.7449999 1.846 0.66000003 17
6.119 1.972 0.80500001 14
6.5679998 2.125 0.97600001 16
7.1259999 2.3150001 1.1799999 15
7.7020001 2.5139999 1.408 12
5.4390001 1.734 0.53899997 16
5.7600002 1.842 0.667 17
6.1409998 1.97 0.81400001 16
6.5910001 2.122 0.98500001 16
7.1609998 2.3150001 1.192 14
7.7410002 2.5150001 1.4220001 11
0 6.1440001 0 0
0 0 0 0
0 0 0 0
0 0 0 255
5.4549999 1.73 0.54500002 15
5.7979999 1.8430001 0.67500001 14
6.1609998 1.965 0.82099998 14
6.6149998 2.118 0.99400002 15
7.1760001 2.3069999 1.201 16
7.7670002 2.5090001 1.433 12
5.473 1.724 0.551 15
5.7940001 1.83 0.68000001 17
6.1830001 1.959 0.829 14
6.632 2.1099999 1.002 16
7.2090001 2.303 1.211 14
7.8000002 2.5039999 1.446 12
5.4889998 1.717 0.55699998 16
5.809 1.822 0.68599999 16
6.2020001 1.952 0.83600003 14
6.6620002 2.1040001 1.011 15
7.2340002 2.2950001 1.221 15
7.8280001 2.4949999 1.456 12
5.4970002 1.706 0.56199998 16
5.8119998 1.809 0.69 16
6.2179999 1.941 0.84200001 15
6.677 2.092 1.017 16
7.2620001 2.286 1.23 15
7.8559999 2.4849999 1.467 12
5.507 1.694 0.56599998 16
5.8439999 1.803 0.69700003 17
6.2360001 1.9299999 0.84899998 15
6.691 2.079 1.024 15
7.277 2.2709999 1.237 15
7.8829999 2.4719999 1.477 12
5.5310001 1.686 0.57200003 16
5.862 1.7920001 0.70300001 16
6.2579999 1.919 0.85500002 16
6.7150002 2.0669999 1.031 15
7.302 2.2579999 1.2460001 14
7.9109998 2.457 1.4859999 12
5.5359998 1.67 0.57499999 15
5.8769999 1.778 0.708 16
6.27 1.903 0.86000001 14
6.7270002 2.05 1.036 16
7.323 2.2409999 1.253 15
7.927 2.437 1.493 12
5.5479999 1.655 0.579 16
5.8839998 1.761 0.71200001 17
6.2789998 1.885 0.86400002 15
6.7420001 2.0320001 1.0420001 16
7.3400002 2.2219999 1.2589999 14
7.9439998 2.4159999 1.5 12
5.5619998 1.641 0.583 16
5.8660002 1.735 0.71200001 16
6.2930002 1.868 0.86799997 15
6.7550001 2.0120001 1.046 16
7.355 2.201 1.265 16
7.9629998 2.3940001 1.506 13
5.5679998 1.622 0.58600003 17
5.8860002 1.719 0.71600002 16
6.303 1.848 0.87199998 15
6.7649999 1.99 1.05 16
7.3660002 2.177 1.2690001 15
7.973 2.368 1.51 12
5.5799999 1.604 0.58899999 16
5.915 1.706 0.72100002 18
6.3109999 1.826 0.875 14
6.7729998 1.967 1.053 16
7.3740001 2.151 1.272 16
7.9879999 2.3410001 1.515 12
5.5929999 1.586 0.59100002 16
5.9250002 1.6849999 0.72399998 17
6.3249998 1.804 0.87800002 15
6.7839999 1.943 1.056 16
7.3920002 2.1259999 1.276 16
8.0030003 2.313 1.5190001 12
5.5869999 1.561 0.59200001 16
5.9419999 1.665 0.727 15
6.3260002 1.778 0.87900001 16
6.7909999 1.916 1.059 17
7.3959999 2.096 1.278 16
8.0109997 2.2809999 1.522 13
5.598 1.54 0.59399998 17
5.927 1.635 0.727 17
6.3319998 1.753 0.88099998 15
6.7909999 1.887 1.059 16
7.4039998 2.066 1.28 16
8.0120001 2.2460001 1.522 13
5.598 1.515 0.59500003 16
5.9330001 1.61 0.72799999 16
6.3400002 1.726 0.88300002 16
6.8070002 1.86 1.062 16
7.4050002 2.0320001 1.281 16
8.0209999 2.2119999 1.524 14
5.6090002 1.492 0.59600002 17
5.9419999 1.585 0.72899997 18
6.3400002 1.696 0.88300002 16
6.8070002 1.8279999 1.062 17
7.4039998 1.997 1.28 15
8.0299997 2.1760001 1.526 14
0 6.1440001 0 0
0 0 0 0
0 0 0 0
0 0 0 255
5.6069999 1.464 0.59600002 17
5.9369998 1.5549999 0.72899997 17
6.3439999 1.6670001 0.884 16
6.8099999 1.796 1.062 16
7.4109998 1.962 1.281 17
8.0310001 2.1359999 1.525 16
5.6079998 1.437 0.59600002 16
5.9450002 1.528 0.72899997 18
6.3429999 1.635 0.88300002 16
6.7989998 1.7589999 1.0599999 16
7.401 1.923 1.278 16
8.0229998 2.0940001 1.522 15
5.6059999 1.408 0.59600002 15
5.9310002 1.494 0.727 17
6.3429999 1.603 0.88200003 16
6.8049998 1.726 1.0599999 16
7.3940001 1.883 1.276 16
8.0240002 2.053 1.521 14
5.6079998 1.38 0.59500003 15
5.934 1.464 0.727 16
6.3439999 1.5700001 0.88099998 15
6.8000002 1.689 1.058 17
7.3979998 1.845 1.275 16
8.0179996 2.0090001 1.518 16
5.6079998 1.35 0.59399998 15
5.9310002 1.432 0.72500002 16
6.3400002 1.535 0.87900001 15
6.7969999 1.652 1.056 16
7.3850002 1.802 1.271 16
8.0089998 1.9630001 1.5140001 15
5.6040001 1.319 0.59299999 15
5.8899999 1.39 0.71899998 14
6.3340001 1.499 0.87699997 15
6.7940001 1.614 1.053 16
7.3889999 1.762 1.2690001 17
8 1.916 1.5089999 16
5.6100001 1.289 0.59200001 15
5.9229999 1.365 0.72100002 16
6.3080001 1.4579999 0.87099999 17
6.7880001 1.575 1.05 16
7.368 1.715 1.263 17
7.9850001 1.867 1.503 15
5.6110001 1.258 0.59100002 15
5.9190001 1.33 0.71899998 16
6.329 1.427 0.87199998 16
6.7709999 1.531 1.045 16
7.3610001 1.671 1.2589999 17
7.9790001 1.819 1.499 15
5.5929999 1.222 0.58700001 15
5.9089999 1.294 0.71600002 16
6.2979999 1.383 0.866 17
6.7659998 1.49 1.041 16
7.348 1.625 1.253 17
7.961 1.768 1.492 14
5.5960002 1.189 0.58499998 15
5.9120002 1.2589999 0.71399999 16
6.2909999 1.344 0.86199999 17
6.757 1.448 1.038 17
7.335 1.577 1.248 16
7.9439998 1.716 1.485 16
5.5819998 1.153 0.58200002 15
5.8979998 1.221 0.70999998 16
6.2940001 1.306 0.86000001 16
6.7490001 1.405 1.033 17
7.3249998 1.53 1.242 17
7.934 1.664 1.479 16
5.579 1.118 0.579 15
5.9029999 1.186 0.708 16
6.2750001 1.2640001 0.85399997 18
6.7379999 1.3609999 1.028 17
7.302 1.48 1.235 17
7.9120002 1.61 1.47 16
5.5640001 1.081 0.57499999 15
5.8940001 1.148 0.704 16
6.263 1.223 0.85000002 18
6.7270002 1.317 1.023 17
7.2969999 1.434 1.23 18
7.8860002 1.556 1.461 16
5.566 1.0470001 0.57300001 15
5.8860002 1.11 0.69999999 16
6.2519999 1.181 0.84500003 17
6.724 1.274 1.0190001 18
7.2800002 1.3839999 1.223 16
7.8590002 1.5 1.451 16
5.5599999 1.011 0.56999999 16
5.8790002 1.071 0.69700003 16
6.2389998 1.1390001 0.83999997 17
6.7080002 1.228 1.013 18
7.2600002 1.3329999 1.215 17
7.836 1.444 1.442 17
5.5489998 0.97299999 0.56599998 16
5.8709998 1.0319999 0.69199997 16
6.25 1.101 0.838 19
6.7030001 1.183 1.008 18
7.2410002 1.2819999 1.2079999 17
7.816 1.3890001 1.433 17
0 6.1440001 0 0
0 0 0 0
0 0 0 0
0 0 0 255
5.533 0.93400002 0.56099999 17
5.8569999 0.991 0.68800002 17
6.223 1.0549999 0.83099997 17
6.6789999 1.135 1 18
7.2259998 1.2309999 1.201 17
7.8049998 1.334 1.426 17
5.5209999 0.89600003 0.55699998 15
5.849 0.95099998 0.68400002 17
6.2220001 1.0140001 0.82700002 18
6.6630001 1.0880001 0.99400002 17
7.2069998 1.1799999 1.193 18
7.7789998 1.278 1.416 17
5.5180001 0.85900003 0.55400002 18
5.8379998 0.91000003 0.67900002 17
6.2150002 0.97000003 0.82200003 18
6.652 1.041 0.98799998 17
7.197 1.1289999 1.187 18
7.7589998 1.221 1.4069999 16
5.507 0.81999999 0.55000001 17
5.8270001 0.86900002 0.67400002 17
6.197 0.92500001 0.81599998 17
6.6409998 0.99400002 0.98199999 17
7.1729999 1.076 1.178 18
7.7259998 1.1619999 1.396 18
5.5040002 0.78299999 0.546 16
5.8210001 0.82800001 0.67000002 15
6.197 0.88300002 0.81199998 17
6.6220002 0.94599998 0.97500002 16
7.158 1.024 1.17 17
7.711 1.1059999 1.387 17
5.493 0.74400002 0.542 17
5.8039999 0.78600001 0.66500002 16
6.1609998 0.83600003 0.80400002 15
6.6149998 0.89899999 0.97000003 16
7.1350002 0.972 1.1619999 16
7.6929998 1.05 1.3789999 16
5.4829998 0.70499998 0.53799999 16
5.796 0.745 0.66000003 15
6.1570001 0.79299998 0.80000001 16
6.6030002 0.85100001 0.96399999 16
7.1199999 0.92000002 1.155 16
7.6680002 0.99199998 1.369 19
5.4809999 0.66600001 0.53500003 16
5.7969999 0.70499998 0.65700001 17
6.1500001 0.74900001 0.79500002 18
6.5809999 0.80199999 0.95599997 15
7.0970001 0.86699998 1.146 17
7.6490002 0.93599999 1.36 16
5.474 0.62800002 0.53100002 16
5.783 0.66299999 0.65200001 15
6.1350002 0.704 0.78899997 17
6.573 0.755 0.95099998 16
7.0879998 0.815 1.14 18
7.6230001 0.87800002 1.35 17
5.4580002 0.588 0.52600002 16
5.777 0.62199998 0.648 17
6.1259999 0.66000003 0.78399998 17
6.5510001 0.70599997 0.94300002 18
7.0640001 0.76200002 1.131 16
7.6069999 0.82099998 1.342 17
5.4510002 0.54900002 0.52200001 19
5.7649999 0.57999998 0.64300001 16
6.1139998 0.61500001 0.77899998 18
6.5339999 0.65700001 0.93699998 17
7.052 0.70899999 1.125 17
7.5819998 0.76300001 1.3329999 16
5.4489999 0.509 0.51899999 16
5.7550001 0.53799999 0.63800001 16
6.1059999 0.56999999 0.77399999 19
6.5180001 0.60799998 0.93000001 18
7.0339999 0.65600002 1.117 17
7.5599999 0.70499998 1.324 17
5.4400001 0.46900001 0.51499999 16
5.7420001 0.495 0.634 16
6.098 0.52499998 0.76899999 17
6.506 0.55900002 0.92500001 17
7.0229998 0.60399997 1.1109999 17
7.5479999 0.64899999 1.316 17
5.4320002 0.43000001 0.51099998 16
5.737 0.45300001 0.63 16
6.092 0.47999999 0.76499999 17
6.494 0.51099998 0.91900003 18
7.0110002 0.551 1.105 17
7.5289998 0.59100002 1.308 17
5.428 0.38999999 0.50800002 15
5.7360001 0.41100001 0.62599999 15
6.0780001 0.43399999 0.75999999 18
6.4809999 0.46200001 0.91299999 19
6.994 0.498 1.098 17
7.5139999 0.53399998 1.301 17
5.4169998 0.34999999 0.50400001 17
5.717 0.368 0.62099999 15
6.066 0.389 0.755 18
6.4860001 0.41499999 0.91000003 19
6.9840002 0.44499999 1.092 17
7.5139999 0.477 1.296 16
0 6.1440001 0 0
0 0 0 0
0 0 0 0
0 0 0 255
5.4070001 0.30899999 0.5 17
5.7160001 0.32600001 0.61799997 16
6.066 0.34400001 0.75099999 17
6.4689999 0.36500001 0.90399998 18
6.9660001 0.39199999 1.085 17
7.4889998 0.419 1.2869999 17
5.3990002 0.26899999 0.49599999 17
5.711 0.28299999 0.61500001 15
6.0570002 0.29899999 0.74699998 17
6.46 0.31600001 0.89899999 20
6.9520001 0.338 1.079 17
7.4660001 0.361 1.279 17
5.4029999 0.229 0.49399999 15
5.7010002 0.23999999 0.61000001 16
6.0469999 0.252 0.74299997 18
6.447 0.266 0.89399999 19
6.9400001 0.285 1.073 17
7.4489999 0.303 1.272 18
5.3940001 0.18799999 0.491 17
5.6960001 0.19599999 0.60699999 16
6.0370002 0.206 0.73799998 18
6.4330001 0.21699999 0.889 18
6.9359999 0.23100001 1.069 17
7.4380002 0.245 1.266 18
5.382 0.147 0.48699999 17
5.691 0.153 0.60399997 15
6.039 0.16 0.736 18
6.4380002 0.167 0.88599998 19
6.915 0.177 1.062 20
7.4219999 0.18700001 1.2589999 18
5.381 0.107 0.48500001 16
5.6820002 0.11 0.60100001 16
6.0289998 0.114 0.73199999 18
6.4169998 0.118 0.88099998 18
0 0 0 0
7.4060001 0.12899999 1.253 17
5.3860002 0.066 0.48300001 16
5.6849999 0.067000002 0.59799999 14
6.0159998 0.068000004 0.72799999 17
6.414 0.068999998 0.87699997 18
6.8990002 0.07 1.054 18
7.3940001 0.071000002 1.248 16
5.3649998 0.025 0.479 23
5.6700001 0.023 0.59500003 16
6.0170002 0.021 0.72500002 16
6.4039998 0.018999999 0.87300003 17
6.881 0.017000001 1.048 18
7.388 0.013 1.244 16
5.3699999 -0.015 0.47799999 35
5.6750002 -0.018999999 0.59299999 14
6.0100002 -0.024 0.722 16
6.402 -0.029999999 0.87099999 17
6.8639998 -0.035999998 1.043 17
7.3790002 -0.044 1.239 16
5.368 -0.056000002 0.47600001 39
5.6739998 -0.063000001 0.59100002 14
6.0100002 -0.071000002 0.72000003 17
6.4070001 -0.079999998 0.86900002 17
6.8379998 -0.090000004 1.036 16
7.388 -0.102 1.238 16
5.3579998 -0.097000003 0.47299999 39
5.6389999 -0.106 0.58600003 23
5.9970002 -0.117 0.71700001 16
6.402 -0.13 0.866 17
6.8720002 -0.145 1.039 17
7.3499999 -0.16 1.229 18
5.3720002 -0.139 0.47299999 29
5.6599998 -0.15099999 0.58600003 34
5.994 -0.164 0.71499997 16
6.3979998 -0.18000001 0.86400002 18
6.8779998 -0.199 1.038 19
0 0 0 0
5.362 -0.18099999 0.47 16
5.6560001 -0.19499999 0.58399999 33
5.9949999 -0.211 0.713 16
6.401 -0.23100001 0.86299998 17
6.8670001 -0.25400001 1.035 18
7.362 -0.278 1.228 16
5.3610001 -0.223 0.46900001 15
