# .PCD v0.7 - Point Cloud Data file format
VERSION 0.7
FIELDS x y z intensity
SIZE 4 4 4 4
TYPE F F F F
COUNT 1 1 1 1
WIDTH 1737
HEIGHT 1
VIEWPOINT 0 0 0 1 0 0 0
POINTS 1737
DATA ascii
8.0550003 -5.836 1.291 17
8.8199997 -6.4039998 1.584 17
9.7370005 -7.0900002 1.941 13
11.076 -8.0930004 2.428 18
12.418 -9.1110001 2.973 21
7.3579998 -5.3189998 1.0319999 15
8.0349998 -5.816 1.28 17
8.7849998 -6.3709998 1.5700001 18
9.6890001 -7.0450001 1.9220001 14
11.008 -8.0299997 2.4030001 18
12.374 -9.0609999 2.951 17
7.3140001 -5.2800002 1.0190001 15
7.9990001 -5.7810001 1.268 16
8.7360001 -6.3239999 1.554 18
9.6470003 -7 1.905 14
10.948 -7.9679999 2.3789999 18
12.33 -9.0059996 2.927 16
0 6.1440001 0 0
0 0 0 0
0 0 0 0
0 0 0 255
7.277 -5.243 1.008 15
7.9699998 -5.7480001 1.256 17
8.6809998 -6.27 1.536 17
9.5939999 -6.9439998 1.885 14
10.873 -7.8909998 2.3510001 18
12.279 -8.9420004 2.902 19
7.2329998 -5.198 0.995 15
7.9390001 -5.71 1.244 16
8.6400003 -6.2210002 1.52 17
9.5349998 -6.8790002 1.863 14
10.805 -7.8150001 2.325 17
12.209 -8.8590002 2.8710001 20
7.1919999 -5.1529999 0.98299998 15
7.888 -5.6539998 1.228 15
8.6070004 -6.1760001 1.506 17
9.4650002 -6.803 1.84 14
10.714 -7.7179999 2.2939999 17
12.145 -8.7749996 2.8429999 19
7.1469998 -5.1020002 0.97000003 15
7.8330002 -5.5939999 1.212 14
8.5640001 -6.1199999 1.489 18
9.4189997 -6.7399998 1.821 13
10.652 -7.6389999 2.2679999 16
12.034 -8.6540003 2.802 20
7.1090002 -5.0539999 0.958 16
7.7820001 -5.533 1.196 14
8.5200005 -6.0609999 1.473 17
9.3549995 -6.6620002 1.798 13
10.564 -7.5370002 2.237 16
11.974 -8.5649996 2.7739999 20
7.0749998 -5.006 0.94599998 17
7.73 -5.4679999 1.1799999 15
8.4809999 -6.0019999 1.457 17
9.3030005 -6.5900002 1.778 13
10.504 -7.4530001 2.2130001 16
11.856 -8.4309998 2.7309999 17
7.033 -4.9499998 0.93400002 17
7.677 -5.4000001 1.164 13
8.434 -5.934 1.4400001 16
9.2639999 -6.5219998 1.76 13
10.411 -7.3410001 2.181 15
11.744 -8.2969999 2.691 15
6.9949999 -4.8940001 0.92199999 15
7.6199999 -5.3280001 1.148 14
8.3690004 -5.8509998 1.419 12
9.1890001 -6.427 1.735 12
10.334 -7.237 2.152 14
11.653 -8.1750002 2.6559999 16
6.9640002 -4.8410001 0.91100001 15
7.5749998 -5.2610002 1.133 14
8.2959995 -5.7600002 1.398 12
9.1569996 -6.3600001 1.719 14
10.26 -7.1329999 2.1240001 14
11.56 -8.0500002 2.6199999 16
6.921 -4.7779999 0.89899999 16
7.5339999 -5.1950002 1.119 15
8.2379999 -5.678 1.38 14
9.1099997 -6.2789998 1.699 15
10.174 -7.0180001 2.0940001 14
11.479 -7.928 2.586 16
6.8800001 -4.7129998 0.88700002 15
7.494 -5.1269999 1.1059999 15
8.1870003 -5.5970001 1.362 13
9.0450001 -6.184 1.677 15
10.11 -6.915 2.069 13
11.398 -7.8060002 2.5539999 15
6.8429999 -4.651 0.875 15
7.4429998 -5.0500002 1.091 15
8.1359997 -5.5159998 1.345 14
8.9359999 -6.0560002 1.647 11
10.056 -6.8179998 2.046 11
11.316 -7.6789999 2.5209999 15
6.8049998 -4.585 0.86400002 16
7.388 -4.9689999 1.075 16
8.0909996 -5.4359999 1.329 15
8.8900003 -5.9699998 1.628 13
9.9580002 -6.6880002 2.0139999 14
11.225 -7.5440001 2.487 15
6.7620001 -4.5139999 0.85299999 16
7.348 -4.8959999 1.062 16
8.0319996 -5.3449998 1.311 14
8.8269997 -5.8699999 1.607 15
9.9060001 -6.5869999 1.992 13
11.127 -7.4029999 2.451 13
6.7249999 -4.4460001 0.84200001 16
7.3049998 -4.8189998 1.049 17
7.987 -5.2620001 1.296 15
8.7709999 -5.7729998 1.5880001 14
9.7930002 -6.4439998 1.9579999 12
11.055 -7.276 2.4219999 14
6.6880002 -4.3769999 0.83099997 17
7.2529998 -4.7350001 1.035 16
7.9229999 -5.165 1.278 15
8.6969995 -5.664 1.5650001 15
9.6890001 -6.3060002 1.927 11
10.946 -7.1259999 2.385 14
0 6.1440001 0 0
0 0 0 0
0 0 0 0
0 0 0 255
6.658 -4.3109999 0.82200003 16
7.2160001 -4.6609998 1.023 17
7.8790002 -5.0799999 1.263 15
8.6409998 -5.5640001 1.546 14
9.618 -6.1890001 1.902 12
10.862 -6.9899998 2.355 13
6.6259999 -4.2420001 0.81199998 16
7.1739998 -4.5809999 1.011 17
7.8340001 -4.993 1.248 16
8.5869999 -5.4650002 1.528 15
9.5430002 -6.0689998 1.877 11
10.688 -6.7950001 2.3050001 13
6.5970001 -4.1739998 0.80400002 15
7.1459999 -4.5100002 1.001 15
7.7800002 -4.8990002 1.233 15
8.5489998 -5.375 1.513 16
9.4589996 -5.941 1.851 9
10.589 -6.6479998 2.2720001 13
6.559 -4.1009998 0.79400003 14
7.1009998 -4.427 0.98900002 18
7.7399998 -4.8140001 1.22 16
8.4799995 -5.2659998 1.493 16
9.3959999 -5.8270001 1.829 13
10.5 -6.5079999 2.2409999 12
6.5300002 -4.0310001 0.78600001 17
7.066 -4.349 0.97899997 18
7.7049999 -4.7309999 1.2079999 16
8.4259996 -5.164 1.476 16
9.323 -5.7069998 1.807 12
10.404 -6.3639998 2.211 11
6.5110002 -3.9679999 0.77899998 17
7.0289998 -4.27 0.96799999 17
7.652 -4.6370001 1.193 16
8.3850002 -5.0710001 1.462 16
9.2539997 -5.5890002 1.784 15
10.328 -6.2309999 2.184 12
6.48 -3.8970001 0.77200001 18
6.9949999 -4.1929998 0.95899999 17
7.6160002 -4.553 1.182 16
8.3339996 -4.9710002 1.446 16
9.2209997 -5.4920001 1.77 14
10.233 -6.0879998 2.155 9
6.454 -3.8269999 0.76499999 17
6.9569998 -4.112 0.949 17
7.5669999 -4.46 1.169 16
8.2930002 -4.8769999 1.433 17
9.1490002 -5.3699999 1.749 15
10.159 -5.9559999 2.1300001 11
6.4359999 -3.763 0.759 18
6.9299998 -4.0380001 0.94099998 15
7.5339999 -4.3759999 1.159 14
8.257 -4.7849998 1.42 14
9.0860004 -5.256 1.729 13
10.092 -5.829 2.1070001 8
6.4109998 -3.694 0.75300002 16
6.8909998 -3.9560001 0.93199998 16
7.494 -4.2880001 1.148 15
8.198 -4.6789999 1.404 14
9.0279999 -5.1420002 1.711 12
10.018 -5.698 2.0829999 9
6.3769999 -3.619 0.74599999 15
6.8740001 -3.8859999 0.926 16
7.4619999 -4.204 1.1390001 15
8.1470003 -4.5780001 1.391 14
8.9890003 -5.04 1.698 14
9.9589996 -5.5749998 2.063 8
6.3639998 -3.5550001 0.74199998 17
6.849 -3.8110001 0.91900003 15
7.4260001 -4.118 1.1289999 15
8.1149998 -4.4879999 1.38 15
8.9460001 -4.9359999 1.684 13
9.9049997 -5.4559999 2.0450001 9
6.3429999 -3.487 0.73699999 16
6.8200002 -3.734 0.91299999 14
7.3990002 -4.0380001 1.1210001 15
8.0799999 -4.3959999 1.37 14
8.9099998 -4.836 1.671 14
9.8470001 -5.3340001 2.026 10
6.3239999 -3.4200001 0.73199999 17
6.802 -3.6630001 0.90700001 14
7.369 -3.954 1.114 15
8.04 -4.3010001 1.358 15
8.8660002 -4.73 1.6569999 14
9.7930002 -5.2140002 2.0079999 10
6.3130002 -3.3559999 0.72899997 18
6.7919998 -3.596 0.90399998 17
7.336 -3.869 1.105 15
8.0019999 -4.2069998 1.348 14
8.8249998 -4.6269999 1.645 14
9.7449999 -5.099 1.993 11
6.2979999 -3.29 0.72500002 18
6.7670002 -3.52 0.898 16
7.3099999 -3.7880001 1.099 14
7.9679999 -4.1149998 1.339 15
8.7819996 -4.5229998 1.632 14
9.6789999 -4.9749999 1.974 12
0 6.1440001 0 0
0 0 0 0
0 0 0 0
0 0 0 255
6.2820001 -3.2249999 0.722 18
6.75 -3.4489999 0.89399999 16
7.283 -3.7079999 1.092 14
7.9419999 -4.0289998 1.331 14
8.7580004 -4.4310002 1.624 14
9.6339998 -4.8629999 1.96 11
6.2729998 -3.1630001 0.72000003 19
6.7329998 -3.378 0.88999999 17
7.2620001 -3.6300001 1.087 15
7.914 -3.9419999 1.324 14
8.7139997 -4.3280001 1.612 14
9.5790005 -4.7449999 1.944 11
6.2610002 -3.098 0.71799999 19
6.711 -3.306 0.88499999 17
7.237 -3.55 1.081 15
7.8870001 -3.8559999 1.316 14
8.6759996 -4.2280002 1.602 14
9.5459995 -4.6399999 1.933 12
6.2600002 -3.039 0.71700001 19
6.7069998 -3.2409999 0.884 18
7.223 -3.4760001 1.077 17
7.868 -3.7720001 1.311 14
8.6599998 -4.138 1.596 15
9.5019999 -4.5279999 1.92 13
6.2519999 -2.977 0.71499997 19
6.6900001 -3.1700001 0.88 18
7.2049999 -3.4000001 1.073 16
7.8390002 -3.6849999 1.304 15
8.6300001 -4.0430002 1.587 15
9.4639997 -4.421 1.908 14
6.2449999 -2.915 0.71399999 19
6.6750002 -3.0999999 0.87800002 17
7.1900001 -3.325 1.069 17
7.8070002 -3.596 1.2970001 16
8.5939999 -3.9449999 1.5779999 15
9.4250002 -4.3140001 1.898 14
6.2319999 -2.8499999 0.713 19
6.658 -3.03 0.875 20
7.1680002 -3.247 1.0650001 16
7.7880001 -3.5139999 1.2920001 17
8.5690002 -3.8529999 1.572 15
9.3990002 -4.2129998 1.8890001 14
6.2259998 -2.7880001 0.71200001 19
6.6539998 -2.964 0.87400001 19
7.1539998 -3.1730001 1.063 17
7.7579999 -3.427 1.286 15
8.5480003 -3.7620001 1.566 15
9.3660002 -4.1090002 1.88 13
6.217 -2.7249999 0.71100003 19
6.6389999 -2.8959999 0.87199998 20
7.1399999 -3.099 1.0599999 17
7.7360001 -3.3429999 1.2819999 17
8.5209999 -3.6689999 1.559 15
9.3380003 -4.0079999 1.872 14
6.217 -2.6659999 0.71100003 19
6.6300001 -2.8280001 0.87099999 20
7.131 -3.0280001 1.058 17
7.7290001 -3.267 1.28 15
8.4910002 -3.576 1.553 16
9.3170004 -3.911 1.8660001 14
6.2119999 -2.605 0.71100003 19
6.6170001 -2.7609999 0.86900002 20
7.119 -2.9560001 1.056 19
7.7150002 -3.1889999 1.277 15
8.4779997 -3.4909999 1.549 14
9.2950001 -3.8139999 1.86 12
6.198 -2.5409999 0.70999998 18
6.6160002 -2.698 0.86900002 17
7.1160002 -2.8870001 1.056 15
7.6919999 -3.1070001 1.273 14
8.46 -3.4030001 1.545 14
9.2679996 -3.7149999 1.853 13
6.2030001 -2.4849999 0.71200001 16
6.605 -2.631 0.86799997 16
7.099 -2.8139999 1.053 16
7.6799998 -3.03 1.27 14
8.4449997 -3.3180001 1.5420001 14
9.2469997 -3.6199999 1.848 12
6.1999998 -2.425 0.71200001 15
6.6009998 -2.5669999 0.86900002 17
7.0910001 -2.744 1.052 16
7.677 -2.9560001 1.27 14
8.4309998 -3.233 1.539 13
9.2209997 -3.5220001 1.842 12
6.2020001 -2.3670001 0.71399999 16
6.5939999 -2.5020001 0.86900002 16
7.0879998 -2.6760001 1.053 16
7.6609998 -2.878 1.267 14
8.4029999 -3.1429999 1.534 13
9.2049999 -3.4300001 1.8380001 11
6.1849999 -2.302 0.713 18
6.5939999 -2.4400001 0.86900002 17
7.0840001 -2.6070001 1.053 15
7.6490002 -2.802 1.266 14
8.3970003 -3.062 1.5319999 14
9.1789999 -3.3340001 1.832 12
0 6.1440001 0 0
0 0 0 0
0 0 0 0
0 0 0 255
6.1820002 -2.243 0.71399999 18
6.5869999 -2.375 0.87 16
7.0710001 -2.536 1.052 15
7.6440001 -2.7279999 1.265 14
8.3800001 -2.977 1.529 13
9.1660004 -3.2420001 1.829 12
6.1880002 -2.1860001 0.71600002 15
6.5879998 -2.3139999 0.87099999 17
7.0669999 -2.4679999 1.052 16
7.6300001 -2.651 1.2640001 14
8.3610001 -2.891 1.526 14
9.1450005 -3.1500001 1.825 13
6.184 -2.1270001 0.71700001 15
6.5819998 -2.25 0.87099999 18
7.0580001 -2.398 1.051 16
7.6160002 -2.575 1.262 15
8.3559999 -2.8110001 1.526 14
9.1379995 -3.0610001 1.824 13
6.184 -2.0680001 0.71799999 18
6.5809999 -2.187 0.87199998 16
7.059 -2.332 1.053 16
7.605 -2.4990001 1.261 15
8.3330002 -2.7249999 1.522 14
9.1210003 -2.97 1.8200001 13
6.191 -2.0120001 0.72100002 17
6.579 -2.125 0.87400001 17
7.052 -2.2650001 1.053 16
7.612 -2.431 1.263 16
8.3269997 -2.645 1.522 15
9.1210003 -2.8840001 1.821 13
6.1729999 -1.948 0.72000003 17
6.5799999 -2.063 0.875 17
7.0419998 -2.1949999 1.053 17
7.6009998 -2.3559999 1.262 17
8.3129997 -2.5639999 1.52 14
9.1140003 -2.7969999 1.8200001 13
6.1680002 -1.8890001 0.72100002 18
6.579 -2.0020001 0.87599999 17
7.0469999 -2.131 1.0549999 19
7.5970001 -2.2839999 1.263 15
8.2989998 -2.4820001 1.518 14
9.0959997 -2.707 1.817 13
6.1810002 -1.836 0.72399998 19
6.5840001 -1.942 0.87900001 17
7.0359998 -2.062 1.054 17
7.5939999 -2.2130001 1.263 16
8.2930002 -2.4030001 1.518 14
9.0799999 -2.618 1.8150001 13
6.1939998 -1.7819999 0.72799999 19
6.5809999 -1.88 0.88 17
7.0359998 -1.997 1.056 18
7.5960002 -2.1429999 1.265 17
8.2930002 -2.3269999 1.5190001 14
9.0790005 -2.5339999 1.8150001 13
6.1859999 -1.722 0.72799999 20
6.5819998 -1.819 0.88200003 17
7.0289998 -1.9299999 1.056 18
7.585 -2.069 1.265 16
8.2880001 -2.2479999 1.5190001 16
9.0670004 -2.4460001 1.813 12
6.1869998 -1.665 0.73000002 19
6.5840001 -1.76 0.884 17
7.0359998 -1.868 1.059 19
7.5869999 -2.0009999 1.266 16
8.2770004 -2.1689999 1.518 14
9.0609999 -2.362 1.813 13
6.1859999 -1.608 0.73199999 19
6.5819998 -1.698 0.88499999 17
7.0380001 -1.803 1.061 19
7.572 -1.928 1.265 16
8.276 -2.0929999 1.5190001 14
9.0480003 -2.2750001 1.812 13
6.1830001 -1.55 0.73400003 19
6.5929999 -1.64 0.88800001 17
7.033 -1.737 1.061 17
7.5770001 -1.859 1.268 16
8.2679996 -2.016 1.5190001 12
9.0439997 -2.1919999 1.812 11
6.1859999 -1.494 0.736 15
6.585 -1.5779999 0.889 15
7.0289998 -1.673 1.062 15
7.579 -1.791 1.2690001 13
8.2650003 -1.9400001 1.52 11
9.0489998 -2.1099999 1.814 11
6.1869998 -1.437 0.73799998 16
6.5819998 -1.517 0.88999999 15
7.0349998 -1.609 1.0650001 15
7.5700002 -1.719 1.2690001 14
8.2810001 -1.868 1.524 12
9.0369997 -2.026 1.813 11
6.1830001 -1.38 0.73900002 15
6.5900002 -1.459 0.89300001 15
7.0300002 -1.545 1.066 14
7.5710001 -1.651 1.271 14
8.2819996 -1.793 1.526 11
9.0279999 -1.942 1.812 11
0 6.1440001 0 0
0 0 0 0
0 0 0 0
0 0 0 255
6.1869998 -1.325 0.741 16
6.5830002 -1.398 0.89399999 15
7.0279999 -1.48 1.067 15
7.5840001 -1.585 1.274 14
8.276 -1.717 1.526 12
9.0290003 -1.86 1.814 12
6.1849999 -1.268 0.74299997 16
6.5830002 -1.3380001 0.89499998 15
7.0359998 -1.418 1.0700001 14
7.5890002 -1.517 1.277 15
8.2709999 -1.641 1.526 14
9.0159998 -1.776 1.812 11
6.191 -1.2130001 0.745 15
6.585 -1.279 0.89700001 15
7.0440001 -1.3559999 1.073 15
7.5819998 -1.448 1.277 14
8.2690001 -1.566 1.527 13
9.0279999 -1.697 1.816 18
6.1890001 -1.1569999 0.74699998 16
6.5869999 -1.22 0.89899999 15
7.0440001 -1.293 1.074 14
7.5819998 -1.3789999 1.278 16
8.2589998 -1.49 1.527 12
9.0059996 -1.612 1.813 28
6.1859999 -1.1 0.74800003 16
6.5960002 -1.1619999 0.90200001 15
7.0409999 -1.228 1.075 15
7.5780001 -1.3099999 1.279 16
8.2460003 -1.413 1.526 14
8.9639997 -1.524 1.8049999 22
6.1919999 -1.045 0.75 15
6.5830002 -1.1 0.90200001 14
7.0339999 -1.164 1.076 16
7.573 -1.242 1.28 16
8.2550001 -1.341 1.529 14
9.0039997 -1.45 1.8150001 12
6.1849999 -0.98900002 0.75099999 14
6.585 -1.0420001 0.903 15
7.0370002 -1.102 1.077 17
7.5749998 -1.174 1.281 15
8.25 -1.267 1.529 14
8.9989996 -1.369 1.8150001 12
6.1810002 -0.93300003 0.75199997 15
6.586 -0.98400003 0.90499997 17
7.0339999 -1.039 1.0779999 16
7.5739999 -1.107 1.283 16
8.2510004 -1.194 1.531 15
8.993 -1.289 1.8150001 11
6.1880002 -0.87900001 0.75400001 15
6.5570002 -0.921 0.90200001 17
7.0380001 -0.977 1.08 17
7.5739999 -1.04 1.284 16
8.2519999 -1.1210001 1.5319999 13
8.9849997 -1.2079999 1.814 12
6.1789999 -0.82300001 0.755 16
6.585 -0.86699998 0.90799999 15
7.0289998 -0.91399997 1.08 16
7.5669999 -0.97299999 1.284 16
8.243 -1.048 1.5319999 14
8.9790001 -1.1289999 1.814 12
6.1729999 -0.76800001 0.755 16
6.5339999 -0.80299997 0.90200001 16
7.0229998 -0.85100001 1.081 16
7.5770001 -0.90700001 1.2869999 15
8.2390003 -0.97399998 1.5319999 15
8.9770002 -1.048 1.8150001 12
6.1820002 -0.71399999 0.75800002 16
6.54 -0.745 0.90399998 16
7.026 -0.78899997 1.082 16
7.5689998 -0.83899999 1.2869999 17
8.2390003 -0.90100002 1.533 16
8.9759998 -0.96899998 1.816 14
6.1750002 -0.65799999 0.75800002 16
6.5609999 -0.68900001 0.90799999 17
7.0219998 -0.727 1.0829999 16
7.572 -0.77200001 1.288 16
8.2309999 -0.82800001 1.533 16
8.9610004 -0.889 1.814 13
6.1890001 -0.60600001 0.76099998 16
6.5630002 -0.63200003 0.90899998 36
7.0339999 -0.667 1.086 17
7.553 -0.704 1.286 16
8.2229996 -0.755 1.5319999 17
8.9650002 -0.81099999 1.816 14
6.1760001 -0.55000001 0.75999999 16
6.5580001 -0.574 0.91000003 39
7.0209999 -0.60399997 1.085 16
7.5510001 -0.63800001 1.2869999 17
8.2229996 -0.68400002 1.533 17
8.9510002 -0.73199999 1.814 14
6.1789999 -0.49599999 0.76200002 23
6.552 -0.51599997 0.91000003 36
7.0170002 -0.54299998 1.085 16
7.5430002 -0.57200003 1.2869999 16
8.2209997 -0.61299998 1.534 15
8.9469995 -0.65399998 1.814 13
0 6.1440001 0 0
0 0 0 0
0 0 0 0
0 0 0 255
6.164 -0.44100001 0.76099998 44
6.553 -0.45899999 0.91100001 17
7.0110002 -0.48100001 1.085 16
7.5419998 -0.50700003 1.2869999 18
8.2139997 -0.54100001 1.534 16
8.9399996 -0.57599998 1.814 14
6.152 -0.38699999 0.75999999 41
6.5630002 -0.403 0.91299999 18
7.02 -0.421 1.0880001 18
7.533 -0.44100001 1.2869999 18
8.2159996 -0.46900001 1.535 16
8.9320002 -0.498 1.813 14
6.152 -0.333 0.76099998 37
6.559 -0.34599999 0.91399997 17
7.0120001 -0.359 1.087 17
7.5320001 -0.375 1.2869999 16
8.2060003 -0.39700001 1.534 15
8.927 -0.419 1.813 15
6.1719999 -0.28 0.764 17
6.553 -0.28799999 0.91399997 17
7.0180001 -0.29800001 1.089 17
7.527 -0.30899999 1.2869999 17
8.1999998 -0.32600001 1.534 16
8.9280005 -0.34299999 1.814 15
6.1659999 -0.226 0.76499999 18
6.5510001 -0.23100001 0.91399997 18
6.9840002 -0.236 1.084 19
7.5279999 -0.244 1.288 16
8.1940002 -0.25400001 1.533 15
8.9180002 -0.26499999 1.813 12
6.1700001 -0.17299999 0.76599997 18
6.5450001 -0.175 0.91399997 19
7 -0.177 1.0880001 16
7.5219998 -0.17900001 1.288 16
8.1870003 -0.184 1.533 15
8.9160004 -0.18799999 1.813 14
6.1599998 -0.12 0.76499999 18
6.5539999 -0.119 0.91600001 18
6.9990001 -0.117 1.0880001 16
7.5149999 -0.115 1.288 16
8.1890001 -0.114 1.534 15
8.9209995 -0.112 1.8150001 12
6.158 -0.067000002 0.76499999 17
6.5510001 -0.063000001 0.91600001 19
6.9949999 -0.057 1.0880001 16
7.507 -0.050999999 1.2869999 17
8.1850004 -0.045000002 1.534 15
8.9029999 -0.035999998 1.812 14
6.1589999 -0.015 0.76599997 17
6.54 -0.0070000002 0.91500002 18
6.9850001 0.0020000001 1.087 16
7.5050001 0.012 1.2869999 16
8.1780005 0.024 1.533 15
8.901 0.037999999 1.813 13
6.1440001 0.037 0.76499999 17
6.5370002 0.048 0.91500002 18
6.9710002 0.061000001 1.086 19
7.5050001 0.075999998 1.288 16
8.177 0.094999999 1.534 15
8.8909998 0.115 1.812 14
6.1420002 0.090000004 0.76499999 17
6.5289998 0.104 0.91500002 17
6.973 0.121 1.087 19
7.5050001 0.141 1.289 16
8.1730003 0.164 1.534 15
8.8870001 0.191 1.811 13
6.1370001 0.142 0.76499999 18
6.526 0.16 0.91500002 17
6.9710002 0.18000001 1.087 19
7.5040002 0.204 1.289 16
8.1700001 0.233 1.534 15
8.882 0.266 1.811 13
6.1420002 0.19499999 0.76599997 18
6.5279999 0.21600001 0.91600001 16
6.9770002 0.23999999 1.0880001 16
7.5019999 0.26800001 1.289 16
8.1599998 0.303 1.533 14
8.868 0.34099999 1.8099999 14
6.1339998 0.24600001 0.76499999 17
6.5180001 0.271 0.91500002 17
6.974 0.29899999 1.0880001 16
7.4980001 0.331 1.289 16
8.158 0.37099999 1.533 15
8.8660002 0.41600001 1.8099999 14
6.1290002 0.29800001 0.76499999 17
6.5240002 0.32600001 0.91600001 17
6.9689999 0.35699999 1.0880001 16
7.4980001 0.39399999 1.29 16
8.1379995 0.44 1.53 16
8.8500004 0.49000001 1.807 13
6.1230001 0.34999999 0.76499999 19
6.52 0.38 0.91600001 17
6.9679999 0.41600001 1.0880001 16
7.4959998 0.45699999 1.29 16
8.132 0.50700003 1.53 15
8.8529997 0.56400001 1.809 12
0 6.1440001 0 0
0 0 0 0
0 0 0 0
0 0 0 255
6.1259999 0.40099999 0.76499999 17
6.5120001 0.435 0.91500002 19
6.967 0.47400001 1.089 17
7.493 0.51899999 1.29 16
8.1370001 0.57499999 1.5319999 15
8.8640003 0.639 1.812 13
6.1170001 0.45199999 0.76499999 19
6.5029998 0.48899999 0.91399997 19
6.9619999 0.53200001 1.0880001 17
7.4990001 0.583 1.2920001 16
8.1359997 0.64300001 1.5319999 17
8.8549995 0.71200001 1.811 13
6.1160002 0.50300002 0.76499999 19
6.494 0.542 0.91299999 18
6.9590001 0.58999997 1.089 17
7.4860001 0.64499998 1.29 17
8.1389999 0.71200001 1.534 17
8.8540001 0.78600001 1.812 13
6.1100001 0.55299997 0.764 19
6.4980001 0.59600002 0.91500002 19
6.9580002 0.648 1.089 17
7.4780002 0.70599997 1.29 17
8.1230001 0.77700001 1.5319999 16
8.8439999 0.85799998 1.811 13
6.1170001 0.60500002 0.76599997 20
6.4889998 0.64899999 0.91399997 19
6.9510002 0.704 1.089 17
7.4809999 0.76800001 1.291 16
8.1330004 0.84600002 1.534 16
8.8470001 0.93300003 1.813 12
6.098 0.65399998 0.764 18
6.493 0.704 0.91500002 20
6.9510002 0.76200002 1.089 17
7.4759998 0.829 1.291 16
8.1239996 0.912 1.534 16
8.8430004 1.005 1.814 12
6.105 0.70499998 0.76499999 20
6.487 0.75700003 0.91500002 18
6.9439998 0.81900001 1.089 17
7.4660001 0.88999999 1.29 17
8.1210003 0.97899997 1.534 15
8.8439999 1.079 1.8150001 12
6.1030002 0.755 0.76499999 18
6.4850001 0.81 0.91500002 19
6.9460001 0.87599999 1.09 17
7.4809999 0.95300001 1.294 16
8.1219997 1.046 1.536 15
8.8470001 1.152 1.817 12
6.0970001 0.80500001 0.76499999 18
0 0 0 0
6.9380002 0.93199998 1.09 17
7.4780002 1.015 1.294 17
8.1210003 1.113 1.5369999 15
8.8590002 1.227 1.821 13
6.0890002 0.85399997 0.76499999 19
6.4990001 0.91900003 0.91799998 16
6.9349999 0.98900002 1.09 17
7.4749999 1.076 1.295 16
8.125 1.1799999 1.539 15
8.8599997 1.3 1.823 12
6.0960002 0.90499997 0.76599997 18
6.4819999 0.97000003 0.917 18
6.9359999 1.0470001 1.091 17
7.4780002 1.138 1.2970001 16
8.1289997 1.248 1.541 15
8.8549995 1.372 1.824 12
6.0900002 0.954 0.76599997 18
6.474 1.022 0.91600001 19
6.9320002 1.103 1.092 17
7.4650002 1.198 1.296 15
8.1190004 1.313 1.541 14
8.8509998 1.4450001 1.826 12
6.0939999 1.005 0.76700002 17
6.4640002 1.073 0.91600001 19
6.928 1.159 1.092 18
7.4720001 1.2589999 1.298 16
8.1239996 1.381 1.544 14
8.8649998 1.5190001 1.831 12
6.0869999 1.054 0.76800001 18
6.4640002 1.126 0.917 19
6.9310002 1.216 1.094 17
7.4759998 1.321 1.301 15
8.125 1.446 1.546 13
8.8669996 1.591 1.834 12
6.0929999 1.104 0.76899999 18
6.474 1.1799999 0.92000002 19
6.927 1.271 1.095 17
7.4749999 1.381 1.302 16
8.1370001 1.5140001 1.551 15
8.8579998 1.6619999 1.834 12
6.085 1.151 0.76899999 18
6.4419999 1.226 0.917 17
6.9260001 1.326 1.096 17
7.4759998 1.441 1.3049999 16
8.151 1.582 1.556 14
8.8590002 1.733 1.837 11
0 6.1440001 0 0
0 0 0 0
0 0 0 0
0 0 0 255
6.0840001 1.2 0.76999998 18
6.4689999 1.283 0.92199999 18
6.9239998 1.381 1.098 16
7.474 1.501 1.306 16
8.1389999 1.645 1.556 15
8.8760004 1.807 1.8430001 11
6.0819998 1.248 0.77100003 17
6.4510002 1.331 0.921 18
6.9289999 1.437 1.1 16
7.4809999 1.561 1.3099999 15
8.1540003 1.7130001 1.561 13
8.8780003 1.877 1.847 11
6.086 1.296 0.773 17
6.487 1.3890001 0.92799997 16
6.934 1.493 1.103 16
7.4840002 1.6210001 1.313 15
8.1610003 1.779 1.566 13
8.8710003 1.947 1.849 11
6.0819998 1.344 0.77399999 19
6.4749999 1.438 0.92799997 20
6.9369998 1.548 1.1059999 17
7.4949999 1.682 1.317 17
8.1639996 1.8430001 1.569 14
8.8959999 2.0220001 1.858 13
6.085 1.392 0.77600002 19
6.4910002 1.492 0.93199998 18
6.9390001 1.603 1.109 16
7.5009999 1.742 1.321 15
8.1780005 1.911 1.575 14
8.9020004 2.0929999 1.863 12
6.0879998 1.4400001 0.77899998 18
6.494 1.543 0.935 18
6.9450002 1.658 1.112 16
7.5159998 1.804 1.327 16
8.1879997 1.976 1.581 14
8.9139996 2.164 1.87 12
6.099 1.489 0.78200001 19
6.494 1.592 0.93699998 17
6.9580002 1.714 1.117 17
7.5180001 1.862 1.33 15
8.1969995 2.0420001 1.586 14
8.9209995 2.2360001 1.876 12
6.098 1.536 0.78399998 18
6.4910002 1.642 0.93900001 17
6.9640002 1.77 1.1210001 17
7.5229998 1.921 1.335 14
8.2080002 2.1070001 1.592 14
8.9320002 2.3069999 1.883 12
6.1129999 1.586 0.78799999 19
6.5029998 1.694 0.94400001 16
6.9749999 1.825 1.126 16
7.5469999 1.985 1.3430001 16
8.2110004 2.171 1.598 13
8.9510002 2.381 1.892 13
6.1090002 1.631 0.79100001 18
6.5110002 1.7460001 0.94800001 16
6.993 1.883 1.132 17
7.5599999 2.0450001 1.349 15
8.2349997 2.24 1.607 13
8.9709997 2.4549999 1.902 12
6.1160002 1.6799999 0.79400003 19
6.5209999 1.798 0.95300001 17
7.0050001 1.939 1.138 16
7.5749998 2.1070001 1.3559999 15
8.2469997 2.3050001 1.614 13
8.9960003 2.529 1.913 12
6.125 1.727 0.79799998 18
6.526 1.847 0.95700002 17
7.006 1.9910001 1.142 16
7.5799999 2.164 1.3609999 15
8.2679996 2.3729999 1.623 13
9.052 2.612 1.931 14
6.1290002 1.773 0.80199999 18
6.54 1.899 0.96200001 17
7.0240002 2.0480001 1.149 15
7.6100001 2.2279999 1.3710001 14
8.2770004 2.4360001 1.631 13
9.0839996 2.688 1.944 24
6.132 1.819 0.80599999 17
6.559 1.952 0.96899998 18
7.0430002 2.105 1.1569999 15
7.6230001 2.2880001 1.3789999 14
8.3059998 2.5050001 1.642 13
9.0579996 2.747 1.9450001 35
6.1609998 1.872 0.81300002 17
6.5650001 2.0020001 0.97399998 17
7.0549998 2.1589999 1.163 14
7.645 2.3499999 1.388 13
8.3290005 2.572 1.653 13
9.0380001 2.8069999 1.948 32
6.165 1.9170001 0.81699997 16
6.579 2.053 0.98000002 17
7.079 2.217 1.1720001 15
7.6570001 2.4089999 1.396 13
8.3529997 2.6400001 1.664 13
9.0769997 2.8840001 1.964 21
0 6.1440001 0 0
0 0 0 0
0 0 0 0
0 0 0 255
6.1620002 1.96 0.82099998 14
6.592 2.1029999 0.98699999 17
7.099 2.2739999 1.181 16
7.677 2.4690001 1.406 13
8.3870001 2.71 1.678 13
9.1899996 2.9849999 1.9960001 15
6.1830001 2.0090001 0.82800001 15
6.6090002 2.155 0.99400002 17
7.118 2.329 1.189 14
7.6960001 2.529 1.415 13
8.4090004 2.776 1.689 13
9.2700005 3.076 2.0220001 24
6.2059999 2.059 0.83600003 16
6.6290002 2.2060001 1.002 16
7.138 2.3840001 1.198 13
7.7160001 2.5880001 1.425 13
8.4639997 2.852 1.7079999 14
9.2690001 3.1400001 2.03 32
6.2220001 2.1059999 0.84299999 16
6.6490002 2.2579999 1.011 16
7.1669998 2.4430001 1.209 13
7.7490001 2.651 1.438 13
8.5229998 2.9300001 1.728 26
9.2399998 3.1919999 2.033 32
6.2290001 2.1500001 0.84899998 14
6.671 2.309 1.02 16
7.1929998 2.4990001 1.22 13
7.7779999 2.7130001 1.451 13
8.5319996 2.9890001 1.738 38
9.2720003 3.2650001 2.049 18
6.2470002 2.197 0.85699999 15
6.6820002 2.3570001 1.027 16
7.2199998 2.5550001 1.2309999 13
7.8010001 2.7720001 1.4630001 14
8.5159998 3.039 1.743 40
9.3789997 3.3640001 2.0829999 14
6.27 2.244 0.86500001 17
6.7080002 2.408 1.0369999 16
7.2420001 2.609 1.242 13
7.8299999 2.832 1.476 14
8.5349998 3.1010001 1.756 26
9.4420004 3.448 2.1070001 14
6.2820001 2.2869999 0.87199998 16
6.7420001 2.4619999 1.049 16
7.257 2.6589999 1.251 13
7.8660002 2.8940001 1.4910001 14
8.5889997 3.174 1.776 16
9.4989996 3.5280001 2.1300001 13
6.3060002 2.335 0.88200003 16
6.763 2.5109999 1.059 16
7.289 2.7160001 1.2640001 13
7.901 2.9549999 1.506 14
8.7110004 3.273 1.811 21
9.5480003 3.605 2.152 12
6.322 2.3770001 0.88999999 16
6.796 2.5639999 1.071 16
7.3140001 2.7679999 1.276 13
7.9349999 3.0150001 1.521 14
8.7449999 3.3380001 1.8279999 35
9.6280003 3.6930001 2.1819999 13
6.3470001 2.4230001 0.89999998 17
6.8260002 2.6140001 1.0829999 16
7.3439999 2.822 1.29 13
7.9980001 3.086 1.5420001 18
8.7480001 3.3900001 1.839 40
9.6870003 3.773 2.207 12
6.3699999 2.4690001 0.91000003 15
6.855 2.664 1.095 15
7.3790002 2.8770001 1.304 14
8.033 3.145 1.558 32
8.7510004 3.441 1.85 29
9.7589998 3.8559999 2.2349999 13
6.3990002 2.5139999 0.921 16
6.8850002 2.7130001 1.107 15
7.4120002 2.931 1.318 14
8.0459995 3.194 1.5700001 43
8.8210001 3.517 1.876 17
9.8339996 3.941 2.2650001 12
6.4289999 2.5599999 0.93199998 16
6.9120002 2.76 1.119 13
7.4429998 2.9820001 1.3329999 13
8.0469999 3.237 1.58 39
8.9160004 3.602 1.9069999 14
9.9189997 4.0279999 2.2980001 12
6.4520001 2.602 0.94300002 15
6.941 2.8069999 1.132 13
7.4889998 3.039 1.35 13
8.0979996 3.299 1.6 23
8.9849997 3.677 1.933 14
9.9890003 4.1090002 2.3269999 12
6.4860001 2.6470001 0.95499998 15
6.9699998 2.8529999 1.145 13
7.5180001 3.0880001 1.364 13
8.1870003 3.3759999 1.628 15
9.0419998 3.7460001 1.957 14
10.069 4.1919999 2.359 11
0 6.1440001 0 0
0 0 0 0
0 0 0 0
0 0 0 255
6.5079999 2.687 0.96600002 15
7.0050001 2.9000001 1.159 13
7.5539999 3.138 1.38 13
8.2720003 3.45 1.655 22
9.1120005 3.8169999 1.984 14
10.146 4.2719998 2.391 10
6.539 2.7279999 0.97799999 13
7.0359998 2.9449999 1.173 13
7.612 3.197 1.4 14
8.3070002 3.503 1.673 32
9.1759996 3.8859999 2.0109999 13
10.221 4.3509998 2.4230001 11
6.573 2.77 0.991 14
7.066 2.987 1.186 13
7.6659999 3.2520001 1.42 22
8.323 3.5450001 1.687 41
9.2460003 3.9560001 2.0380001 13
10.308 4.4330001 2.4579999 10
6.6020002 2.8099999 1.0039999 14
7.1030002 3.0320001 1.201 13
7.6999998 3.2980001 1.436 37
8.323 3.579 1.698 36
9.323 4.027 2.0680001 13
10.409 4.52 2.4960001 11
6.6269999 2.846 1.015 14
7.131 3.0710001 1.215 13
7.7179999 3.335 1.449 42
8.3739996 3.6340001 1.72 23
9.3920002 4.0939999 2.096 13
10.499 4.5999999 2.533 10
6.6659999 2.8859999 1.029 13
7.1719999 3.1140001 1.2309999 13
7.7350001 3.3710001 1.462 41
8.4680004 3.7049999 1.75 15
9.4589996 4.1570001 2.1240001 13
10.593 4.6810002 2.5699999 10
6.6869998 2.918 1.041 13
7.2090001 3.155 1.2460001 13
7.7600002 3.408 1.477 28
8.5480003 3.7690001 1.778 13
9.5349998 4.224 2.154 12
10.682 4.757 2.6070001 9
6.73 2.957 1.056 12
7.244 3.1919999 1.261 12
7.8299999 3.4630001 1.5 17
8.6190004 3.8280001 1.804 14
9.6120005 4.289 2.184 13
10.783 4.8369999 2.6470001 11
6.7589998 2.9890001 1.069 13
7.2789998 3.2290001 1.277 13
7.9159999 3.5239999 1.527 15
8.684 3.882 1.829 14
9.6800003 4.3470001 2.2130001 12
10.877 4.9109998 2.6849999 10
6.7909999 3.02 1.082 13
7.3249998 3.2679999 1.294 13
7.9819999 3.5739999 1.549 21
8.7419996 3.931 1.852 13
9.7690001 4.4130001 2.2460001 12
10.976 4.9850001 2.724 11
6.8319998 3.0539999 1.097 13
7.382 3.3110001 1.313 15
8.0290003 3.6140001 1.569 31
8.8129997 3.983 1.8789999 14
9.8439999 4.4710002 2.276 11
11.075 5.0570002 2.7639999 11
6.862 3.082 1.11 14
7.4359999 3.3499999 1.331 23
8.0360003 3.6340001 1.58 40
8.8559999 4.0219998 1.899 14
9.9280005 4.5300002 2.309 11
11.172 5.1259999 2.803 11
6.8870001 3.105 1.122 13
7.4850001 3.3859999 1.349 32
8.0559998 3.6570001 1.594 44
8.9259996 4.0700002 1.925 15
10.006 4.5840001 2.339 13
11.282 5.197 2.845 12
6.9260001 3.1329999 1.136 13
7.4949999 3.401 1.36 41
8.092 3.6860001 1.61 39
8.9829998 4.1100001 1.948 15
10.074 4.631 2.368 12
11.367 5.2540002 2.881 12
6.9650002 3.1600001 1.15 13
7.5190001 3.4219999 1.372 46
8.1350002 3.7160001 1.628 31
9.0450001 4.1490002 1.973 15
10.13 4.6700001 2.3929999 12
11.462 5.3130002 2.9189999 11
6.987 3.1760001 1.161 13
7.5370002 3.437 1.3839999 46
8.1850004 3.747 1.648 21
9.1029997 4.1849999 1.995 15
10.23 4.7259998 2.428 11
11.566 5.3730001 2.9590001 12
0 6.1440001 0 0
0 0 0 0
0 0 0 0
0 0 0 255
7.0250001 3.198 1.175 13
7.5619998 3.454 1.397 43
8.25 3.7820001 1.669 17
9.1560001 4.2160001 2.017 15
10.284 4.7589998 2.4530001 11
11.663 5.427 2.997 12
7.052 3.2119999 1.187 13
7.5939999 3.47 1.41 33
8.3079996 3.812 1.6900001 15
9.2150002 4.2459998 2.04 15
10.367 4.8010001 2.484 6
11.754 5.474 3.0339999 13
7.0830002 3.227 1.199 13
7.618 3.4820001 1.4220001 28
8.3570004 3.835 1.7079999 15
9.2589998 4.2680001 2.059 14
10.434 4.8340001 2.5109999 6
11.859 5.5250001 3.073 13
7.1059999 3.2360001 1.209 13
7.665 3.5020001 1.438 22
8.3950005 3.8510001 1.724 15
9.3179998 4.2930002 2.0810001 14
10.507 4.8660002 2.5380001 11
11.958 5.5689998 3.1110001 13
7.1420002 3.2490001 1.222 14
7.7010002 3.5150001 1.452 18
8.441 3.8670001 1.7410001 15
9.3850002 4.3200002 2.1040001 14
10.577 4.8930001 2.5650001 11
12.05 5.6059999 3.145 14
7.165 3.2539999 1.232 14
7.7550001 3.533 1.4680001 17
8.4799995 3.8789999 1.756 15
9.4259996 4.3309999 2.1210001 14
10.627 4.908 2.586 11
12.123 5.631 3.175 13
7.1950002 3.26 1.242 13
7.79 3.5409999 1.4809999 16
8.5179996 3.888 1.771 15
9.4610004 4.3379998 2.1370001 14
10.701 4.9320002 2.6129999 11
12.223 5.665 3.211 13
7.2179999 3.2609999 1.251 13
7.8309999 3.55 1.494 17
8.5539999 3.8929999 1.784 15
9.5030003 4.3439999 2.1530001 14
10.75 4.9400001 2.632 12
12.278 5.6739998 3.234 12
7.2470002 3.2620001 1.261 13
7.8600001 3.55 1.505 18
8.5880003 3.8940001 1.7970001 15
9.559 4.3540001 2.1719999 13
10.802 4.9460001 2.652 12
12.36 5.6919999 3.2639999 12
7.2610002 3.2539999 1.268 13
7.8940001 3.55 1.516 18
8.6260004 3.895 1.8099999 14
9.5909996 4.3509998 2.1849999 12
10.848 4.947 2.6700001 11
12.434 5.7030001 3.2909999 14
7.2789998 3.247 1.275 13
7.9159999 3.543 1.525 18
8.6520004 3.888 1.8200001 14
9.6269999 4.3470001 2.198 12
10.878 4.9369998 2.6830001 11
12.482 5.697 3.3099999 13
7.303 3.24 1.283 13
7.9390001 3.5339999 1.533 18
8.677 3.8789999 1.829 14
9.6540003 4.335 2.2090001 12
10.911 4.9250002 2.6960001 11
12.513 5.6810002 3.3239999 14
7.3169999 3.227 1.288 13
7.9510002 3.5190001 1.539 17
8.6999998 3.8659999 1.8380001 14
9.677 4.3200002 2.2179999 13
10.958 4.9169998 2.711 11
12.563 5.6700001 3.342 14
7.3280001 3.21 1.293 14
7.9629998 3.5 1.544 16
8.7180004 3.848 1.844 14
9.7139997 4.3070002 2.2290001 13
10.982 4.8940001 2.721 11
12.591 5.6440001 3.352 14
7.3470001 3.1949999 1.298 14
7.973 3.4790001 1.548 16
8.7370005 3.829 1.851 14
9.7370005 4.2859998 2.237 13
11.005 4.8699999 2.7290001 11
12.63 5.6209998 3.3659999 14
7.3579998 3.175 1.302 14
7.9759998 3.4530001 1.55 15
8.7620001 3.809 1.858 14
9.7340002 4.2509999 2.2379999 14
11.025 4.8400002 2.7360001 11
12.631 5.5770001 3.368 14
0 6.1440001 0 0
0 0 0 0
0 0 0 0
0 0 0 255
7.3629999 3.1500001 1.304 14
7.973 3.4230001 1.551 17
8.7620001 3.776 1.859 15
9.7399998 4.2179999 2.2409999 14
11.044 4.8070002 2.7409999 11
12.673 5.5479999 3.3800001 14
7.3730001 3.1259999 1.307 14
7.9520001 3.3829999 1.5470001 26
8.7609997 3.7420001 1.859 15
9.7650003 4.1900001 2.247 13
11.047 4.7639999 2.7420001 11
12.649 5.487 3.3729999 14
7.3769999 3.098 1.308 14
7.9439998 3.3469999 1.546 26
8.7709999 3.71 1.8609999 15
9.7600002 4.1479998 2.2449999 14
11.047 4.7189999 2.7409999 11
12.643 5.4310002 3.3710001 14
7.3790002 3.0669999 1.308 14
7.9549999 3.3169999 1.5470001 33
8.7700005 3.6719999 1.86 16
9.757 4.1040001 2.243 14
11.039 4.6669998 2.7379999 11
12.624 5.3670001 3.3629999 14
7.3730001 3.0309999 1.306 14
7.96 3.2839999 1.548 42
8.7460003 3.622 1.853 16
9.7390003 4.052 2.2379999 16
11.043 4.6170001 2.737 11
12.613 5.3039999 3.3570001 13
7.3759999 2.997 1.306 14
7.9879999 3.2579999 1.552 45
8.7110004 3.566 1.844 19
9.7370005 4.0040002 2.2349999 16
11.017 4.553 2.727 11
12.603 5.2389998 3.3510001 14
7.3769999 2.9619999 1.304 14
7.9990001 3.223 1.552 45
8.6870003 3.513 1.837 26
9.7270002 3.9519999 2.23 15
10.998 4.4910002 2.7190001 11
12.566 5.1589999 3.336 13
7.3730001 2.9230001 1.302 14
8.0080004 3.1849999 1.551 42
8.6719999 3.4630001 1.831 36
9.7030001 3.891 2.22 15
10.977 4.4239998 2.7090001 12
12.526 5.0770001 3.3199999 13
7.3639998 2.881 1.298 14
8.0159998 3.1459999 1.55 32
8.6800003 3.4200001 1.829 45
9.6890001 3.8340001 2.2130001 16
10.942 4.3509998 2.6960001 13
12.483 4.9920001 3.303 13
7.3579998 2.8380001 1.294 15
8.0080004 3.099 1.545 24
8.6949997 3.378 1.829 42
9.658 3.7690001 2.201 16
10.931 4.2870002 2.687 12
12.45 4.9089999 3.2869999 13
7.3509998 2.7950001 1.29 14
7.9679999 3.04 1.534 16
8.7080002 3.335 1.827 36
9.6269999 3.7030001 2.1889999 16
10.896 4.211 2.6719999 11
12.384 4.8119998 3.2609999 13
7.3390002 2.7490001 1.284 14
7.941 2.984 1.525 15
8.7089996 3.2839999 1.823 27
9.599 3.635 2.177 16
10.853 4.1300001 2.655 11
12.335 4.7199998 3.24 12
7.3280001 2.701 1.278 13
7.9219999 2.9300001 1.517 13
8.6689997 3.2179999 1.809 17
9.566 3.566 2.1630001 16
10.803 4.046 2.635 12
12.258 4.6149998 3.211 12
7.3150001 2.6530001 1.272 12
7.9060001 2.8759999 1.5089999 13
8.5799999 3.1329999 1.785 18
9.533 3.4949999 2.1489999 16
10.759 3.9630001 2.6159999 12
12.202 4.5180001 3.187 12
7.3080001 2.6059999 1.266 13
7.8870001 2.8210001 1.5 13
8.5349998 3.0639999 1.77 33
9.4899998 3.4200001 2.1329999 15
10.716 3.8800001 2.598 13
12.138 4.4169998 3.1600001 12
7.289 2.5539999 1.258 14
7.8720002 2.766 1.492 14
8.5430002 3.013 1.765 47
9.4399996 3.342 2.1140001 16
10.674 3.796 2.579 14
12.077 4.3169999 3.1329999 12
0 6.1440001 0 0
0 0 0 0
0 0 0 0
0 0 0 255
7.2779999 2.503 1.251 15
7.855 2.71 1.483 15
8.5489998 2.9590001 1.76 42
9.3369999 3.244 2.0829999 24
10.615 3.704 2.5550001 15
12.012 4.2119999 3.105 11
7.2579999 2.4489999 1.243 14
7.8299999 2.6489999 1.472 15
8.5500002 2.9030001 1.753 29
9.3039999 3.171 2.0680001 39
10.567 3.6170001 2.5339999 15
11.941 4.1069999 3.075 11
7.2350001 2.3929999 1.233 14
7.803 2.5880001 1.46 14
8.5089998 2.8329999 1.737 18
9.3310003 3.1170001 2.066 41
10.491 3.52 2.506 15
11.855 3.997 3.0409999 11
7.2090001 2.3369999 1.223 15
7.7789998 2.529 1.45 14
8.4420004 2.753 1.716 14
9.3389997 3.0569999 2.059 34
10.441 3.431 2.484 15
11.783 3.891 3.0109999 11
7.1869998 2.2809999 1.214 16
7.7480001 2.4660001 1.437 14
8.4189997 2.687 1.704 14
9.276 2.9719999 2.036 21
10.357 3.3310001 2.4530001 16
11.716 3.7850001 2.9809999 11
7.165 2.224 1.204 16
7.7259998 2.405 1.426 14
8.3809996 2.6159999 1.688 14
9.1219997 2.858 1.993 25
10.301 3.24 2.4289999 16
11.632 3.675 2.947 10
7.1370001 2.1659999 1.193 16
7.6999998 2.3429999 1.414 15
8.3459997 2.5469999 1.673 14
9.1020002 2.7869999 1.98 43
10.234 3.1459999 2.4030001 17
11.546 3.5639999 2.9119999 10
7.1149998 2.1099999 1.183 15
7.6789999 2.2820001 1.404 15
8.3129997 2.4779999 1.659 15
9.1029997 2.7219999 1.971 39
10.117 3.036 2.3640001 19
11.462 3.4549999 2.878 11
7.0770001 2.0480001 1.17 15
7.6459999 2.217 1.39 16
8.2740002 2.4070001 1.643 15
9.0909996 2.6530001 1.959 28
10.021 2.9349999 2.3310001 26
11.405 3.3540001 2.8510001 12
7.0479999 1.989 1.159 16
7.6139998 2.154 1.378 15
8.2460003 2.339 1.6289999 15
9.0290003 2.569 1.936 18
10.01 2.858 2.3180001 41
11.297 3.2390001 2.8110001 13
7.039 1.936 1.151 16
7.586 2.0910001 1.365 17
8.2119999 2.2690001 1.614 15
8.9689999 2.4860001 1.914 16
10.018 2.786 2.3080001 37
11.216 3.131 2.7780001 15
6.9949999 1.873 1.138 16
7.5539999 2.027 1.352 18
8.1759996 2.1989999 1.599 15
8.9219999 2.4059999 1.8940001 16
9.9429998 2.6900001 2.28 24
11.146 3.027 2.7479999 15
6.973 1.816 1.127 17
7.5229998 1.9630001 1.339 15
8.1490002 2.131 1.585 16
8.8760004 2.3269999 1.875 17
9.783 2.573 2.2320001 28
11.068 2.921 2.7149999 14
6.9450002 1.757 1.1160001 17
7.494 1.9 1.327 18
8.118 2.062 1.5700001 16
8.8369999 2.25 1.857 17
9.7650003 2.494 2.217 41
10.97 2.8110001 2.678 14
6.921 1.7 1.1059999 15
7.4720001 1.8380001 1.3150001 16
8.0799999 1.9910001 1.5549999 14
8.7959995 2.1730001 1.839 15
9.7810001 2.4230001 2.21 35
10.822 2.6900001 2.6289999 19
6.8930001 1.642 1.095 15
7.4380002 1.773 1.302 16
8.0459995 1.9220001 1.54 16
8.7530003 2.096 1.821 15
9.7290001 2.335 2.187 19
10.73 2.5840001 2.5940001 33
0 6.1440001 0 0
0 0 0 0
0 0 0 0
0 0 0 255
6.869 1.584 1.085 14
7.4070001 1.71 1.289 16
8.0120001 1.852 1.525 16
8.717 2.02 1.804 15
9.6269999 2.2360001 2.1530001 15
10.78 2.5109999 2.5940001 40
6.8509998 1.528 1.075 15
7.3779998 1.647 1.277 16
7.9770002 1.783 1.511 15
8.6759996 1.944 1.786 15
9.5810003 2.151 2.132 15
10.748 2.4200001 2.5739999 25
6.823 1.47 1.0650001 15
7.3540001 1.585 1.265 15
7.9419999 1.714 1.4960001 16
8.6420002 1.868 1.77 16
9.5229998 2.063 2.109 15
10.523 2.2850001 2.5079999 23
6.8060002 1.414 1.056 15
7.316 1.521 1.252 16
7.9180002 1.648 1.484 16
8.5979996 1.7920001 1.752 16
9.4890003 1.9809999 2.0910001 15
10.48 2.1930001 2.4860001 38
6.7919998 1.359 1.0470001 17
7.283 1.4579999 1.239 15
7.8759999 1.5779999 1.4680001 15
8.5570002 1.716 1.735 16
9.4320002 1.895 2.069 16
10.525 2.1199999 2.4849999 36
6.7709999 1.303 1.038 16
7.2649999 1.398 1.23 16
7.8429999 1.51 1.454 16
8.5229998 1.643 1.719 16
9.3850002 1.812 2.0480001 15
10.471 2.0250001 2.461 19
6.7550001 1.248 1.029 16
7.2360001 1.337 1.2180001 16
7.8080001 1.443 1.4400001 17
8.4790001 1.568 1.702 16
9.3430004 1.73 2.03 15
10.358 1.921 2.4230001 15
6.7179999 1.189 1.018 18
7.21 1.276 1.207 16
7.777 1.376 1.427 17
8.4370003 1.493 1.686 18
9.2959995 1.647 2.01 16
10.304 1.827 2.3989999 15
6.7020001 1.1339999 1.01 19
7.184 1.215 1.196 17
7.7379999 1.308 1.413 16
8.4069996 1.421 1.671 16
9.2609997 1.567 1.993 16
10.239 1.734 2.3740001 15
6.677 1.0779999 1.001 17
7.158 1.155 1.186 17
7.7179999 1.244 1.402 16
8.3649998 1.348 1.656 16
9.2200003 1.4859999 1.976 16
10.184 1.643 2.3510001 16
6.6680002 1.025 0.99400002 17
7.138 1.096 1.177 17
7.691 1.1799999 1.391 17
8.3319998 1.277 1.641 17
9.1619997 1.404 1.955 15
10.143 1.5549999 2.332 15
6.6389999 0.96799999 0.98400003 18
7.119 1.0369999 1.168 17
7.6690001 1.115 1.38 16
8.2980003 1.206 1.628 19
9.1350002 1.327 1.941 16
10.097 1.466 2.312 15
6.6300001 0.91500002 0.97799999 17
7.098 0.97799999 1.159 17
7.6399999 1.051 1.369 17
8.276 1.136 1.6160001 17
9.1070004 1.249 1.927 17
10.062 1.3789999 2.2950001 15
6.625 0.86199999 0.972 18
7.0739999 0.91799998 1.149 17
7.619 0.98699999 1.359 19
0 0 0 50
9.073 1.1720001 1.9119999 16
10.016 1.2920001 2.2750001 15
6.6110001 0.80900002 0.96499997 16
7.0609999 0.861 1.142 17
7.598 0.92400002 1.35 18
8.2139997 0.99699998 1.591 18
9.0290003 1.0930001 1.895 16
9.9549999 1.2029999 2.253 16
6.5939999 0.755 0.95899999 17
7.046 0.80299997 1.135 18
7.579 0.86199999 1.341 18
8.1960001 0.92799997 1.581 19
8.9980001 1.017 1.882 16
9.9180002 1.117 2.237 16
0 6.1440001 0 0
0 0 0 0
0 0 0 0
0 0 0 255
6.5809999 0.70099998 0.95200002 16
7.0289998 0.74599999 1.127 15
7.5570002 0.79799998 1.332 15
8.1800003 0.861 1.573 16
8.9709997 0.94099998 1.87 14
9.8719997 1.0319999 2.2190001 13
6.5689998 0.648 0.94599998 17
7.013 0.68900001 1.12 15
7.54 0.73699999 1.324 15
8.1490002 0.792 1.561 17
8.9390001 0.86500001 1.857 15
9.8450003 0.949 2.2060001 13
6.5500002 0.59399998 0.94 16
7.0029998 0.63200003 1.114 15
7.527 0.67500001 1.317 15
8.1280003 0.72500002 1.552 17
0 0 0 50
9.8079996 0.86500001 2.191 13
6.5380001 0.542 0.935 16
6.9980001 0.57599998 1.11 15
7.5139999 0.61299998 1.3099999 16
8.1099997 0.65799999 1.543 18
8.8979998 0.71700001 1.837 15
9.7700005 0.78100002 2.1760001 13
6.5289998 0.48899999 0.93000001 16
6.9819999 0.51800001 1.103 15
7.4990001 0.55199999 1.303 16
8.099 0.59100002 1.5369999 17
8.8889999 0.64300001 1.83 16
9.7440004 0.699 2.165 14
6.5289998 0.43700001 0.92699999 17
6.967 0.46200001 1.098 15
7.4959998 0.491 1.299 16
8.0749998 0.52399999 1.528 17
8.8620005 0.56900001 1.819 15
9.7209997 0.61799997 2.154 14
6.5219998 0.38499999 0.92299998 16
6.961 0.40599999 1.0930001 15
7.4809999 0.43000001 1.293 15
8.0699997 0.458 1.523 17
8.8409996 0.49599999 1.811 16
9.6859999 0.53600001 2.141 14
6.5120001 0.33199999 0.91799998 16
6.9530001 0.34900001 1.089 15
7.473 0.36899999 1.288 16
8.0690002 0.39199999 1.5190001 18
8.8219995 0.42199999 1.803 17
9.684 0.456 2.1359999 13
6.52 0.28099999 0.917 16
6.9549999 0.294 1.087 16
7.46 0.30899999 1.283 16
0 0 0 50
8.8269997 0.35100001 1.8 17
9.6730003 0.377 2.1300001 14
6.506 0.228 0.91299999 17
6.9429998 0.23800001 1.082 15
7.4419999 0.248 1.277 16
8.0469999 0.26100001 1.5089999 16
8.8079996 0.278 1.794 17
9.658 0.296 2.1229999 14
6.4899998 0.176 0.90899998 16
6.9219999 0.18099999 1.077 17
7.4439998 0.18799999 1.275 16
8.0539999 0.19499999 1.508 17
8.8129997 0.205 1.7920001 17
9.6610003 0.21600001 2.1210001 14
6.4970002 0.124 0.90799999 16
6.9330001 0.125 1.077 15
7.4320002 0.127 1.271 15
8.0419998 0.12899999 1.5039999 17
8.8059998 0.133 1.788 16
9.6529999 0.13600001 2.1170001 13
6.5029998 0.071999997 0.90700001 17
6.915 0.068999998 1.073 17
7.4390001 0.067000002 1.271 17
8.0349998 0.064000003 1.501 17
8.8000002 0.061000001 1.785 15
9.6499996 0.056000002 2.1140001 14
6.4910002 0.02 0.90399998 16
6.9390001 0.014 1.075 15
0 0 0 50
8.0340004 -0.001 1.499 17
8.8070002 -0.011 1.785 16
9.6529999 -0.023 2.1129999 14
6.4980001 -0.032000002 0.90399998 17
6.9390001 -0.041999999 1.074 15
7.4450002 -0.052999999 1.27 17
8.0469999 -0.067000002 1.5 17
8.8199997 -0.083999999 1.786 14
9.6440001 -0.103 2.109 14
6.5009999 -0.083999999 0.90399998 17
6.947 -0.097999997 1.075 15
7.4429998 -0.114 1.2690001 17
8.0450001 -0.132 1.499 16
8.8129997 -0.156 1.784 15
9.658 -0.184 2.112 14
0 6.1440001 0 0
0 0 0 0
0 0 0 0
0 0 0 255
6.5029998 -0.13600001 0.90399998 17
6.9530001 -0.155 1.075 16
7.4460001 -0.175 1.2690001 16
8.0480003 -0.199 1.499 17
8.8299999 -0.23 1.7869999 16
9.6689997 -0.264 2.1140001 14
6.5120001 -0.189 0.90499997 17
6.9429998 -0.20999999 1.073 15
7.4569998 -0.235 1.271 16
8.0609999 -0.26499999 1.502 16
8.8369999 -0.303 1.789 16
9.691 -0.34599999 2.119 14
6.5110002 -0.241 0.90499997 16
6.9679999 -0.26699999 1.077 16
0 0 0 50
8.0769997 -0.33199999 1.505 17
8.8450003 -0.37599999 1.791 16
9.71 -0.42699999 2.1240001 13
6.5219998 -0.29499999 0.90700001 15
6.9689999 -0.32499999 1.0779999 15
7.4770002 -0.359 1.275 16
8.0769997 -0.39899999 1.506 16
8.8640003 -0.45100001 1.796 17
9.7209997 -0.50999999 2.128 14
6.539 -0.34900001 0.91000003 16
6.9720001 -0.382 1.079 15
7.4910002 -0.421 1.278 18
8.1009998 -0.46799999 1.512 18
8.8839998 -0.52600002 1.801 15
9.7469997 -0.59299999 2.135 14
6.5440001 -0.40200001 0.912 16
6.9829998 -0.44 1.082 14
7.5029998 -0.484 1.2819999 17
8.1160002 -0.53600001 1.516 16
8.9160004 -0.60299999 1.8099999 15
9.7620001 -0.676 2.141 13
6.5500002 -0.456 0.91399997 16
6.9949999 -0.498 1.086 15
7.5139999 -0.546 1.285 16
8.1370001 -0.60399997 1.522 16
8.9390001 -0.67900002 1.817 15
9.7910004 -0.75999999 2.1500001 14
6.5489998 -0.509 0.91500002 31
7.0219998 -0.55699998 1.091 16
7.539 -0.60900003 1.291 15
8.1560001 -0.67299998 1.528 18
8.9589996 -0.75400001 1.823 14
9.8219995 -0.84399998 2.1600001 14
6.5650001 -0.56300002 0.91900003 34
7.0250001 -0.61400002 1.094 14
7.5539999 -0.67199999 1.296 15
0 0 0 50
8.9849997 -0.83099997 1.832 15
9.8570004 -0.92900002 2.171 13
6.5809999 -0.61799997 0.92299998 33
7.0440001 -0.67299998 1.099 15
7.5760002 -0.736 1.303 16
8.2060003 -0.81199998 1.543 15
9.0190001 -0.91000003 1.8430001 14
9.8879995 -1.016 2.1830001 13
6.618 -0.67500001 0.93099999 19
7.0619998 -0.73299998 1.105 14
7.599 -0.80199999 1.3099999 15
8.2370005 -0.884 1.552 15
9.052 -0.98900002 1.853 15
9.9540005 -1.107 2.2019999 13
6.6230001 -0.73000002 0.93400002 12
7.0749998 -0.79299998 1.11 14
7.6269999 -0.86799997 1.318 15
8.2659998 -0.95599997 1.562 15
9.0930004 -1.069 1.8660001 15
9.9989996 -1.196 2.217 13
6.645 -0.78600001 0.94 13
7.0999999 -0.85299999 1.117 14
7.6550002 -0.93400002 1.326 14
8.2950001 -1.028 1.571 14
9.1300001 -1.15 1.8789999 14
10.05 -1.286 2.234 13
6.6630001 -0.84299999 0.94599998 13
7.1240001 -0.91500002 1.124 14
7.6820002 -1.001 1.335 14
0 0 0 50
9.1800003 -1.232 1.895 14
10.116 -1.38 2.2550001 13
6.6900001 -0.90100002 0.95300001 13
7.152 -0.97600001 1.132 15
7.71 -1.067 1.344 14
8.3629999 -1.175 1.594 13
9.224 -1.3150001 1.91 14
10.17 -1.472 2.2739999 14
6.698 -0.95700002 0.958 16
7.1820002 -1.04 1.141 14
7.7399998 -1.136 1.354 13
8.4049997 -1.251 1.607 14
9.2770004 -1.401 1.927 14
10.222 -1.567 2.293 13
0 6.1440001 0 0
0 0 0 0
0 0 0 0
0 0 0 255
6.7270002 -1.015 0.96600002 13
7.2059999 -1.102 1.149 14
7.7729998 -1.204 1.365 14
8.4589996 -1.329 1.623 22
0 0 0 50
10.283 -1.661 2.3150001 13
6.7550001 -1.075 0.97399998 13
7.237 -1.166 1.159 14
7.8080001 -1.274 1.376 13
8.5010004 -1.406 1.637 23
9.3859997 -1.574 1.9630001 14
10.368 -1.7640001 2.342 13
6.783 -1.135 0.98199999 12
7.2789998 -1.233 1.171 15
7.8470001 -1.346 1.3890001 13
8.5530005 -1.4859999 1.654 23
9.4160004 -1.658 1.977 15
10.447 -1.8660001 2.369 13
6.8099999 -1.1950001 0.991 12
7.3039999 -1.2970001 1.1799999 13
7.882 -1.418 1.401 14
8.5939999 -1.566 1.669 13
9.4630003 -1.747 1.995 27
10.524 -1.969 2.3959999 13
0 0 0 50
7.3449998 -1.3660001 1.192 12
7.9349999 -1.493 1.4170001 15
8.6479998 -1.648 1.687 15
9.5500002 -1.8430001 2.0220001 32
10.6 -2.073 2.4230001 16
6.8709998 -1.318 1.01 15
7.382 -1.433 1.204 14
7.9790001 -1.567 1.432 13
8.7060003 -1.732 1.706 14
9.6470003 -1.943 2.0510001 23
10.693 -2.1819999 2.4549999 15
6.8920002 -1.3789999 1.018 14
7.4200001 -1.501 1.216 14
8.0209999 -1.642 1.446 13
8.7539997 -1.814 1.723 15
9.691 -2.0339999 2.0699999 15
10.802 -2.296 2.4909999 15
6.9229999 -1.443 1.028 14
7.4369998 -1.567 1.225 13
0 0 0 50
8.8170004 -1.902 1.744 14
9.7819996 -2.1359999 2.0999999 15
10.891 -2.4089999 2.523 15
6.9559999 -1.507 1.039 15
7.4759998 -1.637 1.238 15
8.1219997 -1.799 1.479 13
8.8760004 -1.989 1.7640001 14
9.8500004 -2.234 2.1240001 14
10.995 -2.526 2.559 15
6.9860001 -1.571 1.05 15
7.513 -1.707 1.251 13
8.1560001 -1.875 1.493 12
8.9420004 -2.079 1.7869999 15
9.941 -2.339 2.155 15
11.111 -2.6470001 2.599 15
7.0240002 -1.638 1.062 15
7.5599999 -1.781 1.266 13
8.2030001 -1.954 1.51 13
9.0039997 -2.1689999 1.808 14
10.03 -2.4449999 2.1849999 14
11.202 -2.7639999 2.6329999 14
7.0560002 -1.7029999 1.073 14
7.6030002 -1.854 1.281 14
8.2620001 -2.0369999 1.529 13
9.0710001 -2.2620001 1.832 14
0 0 0 50
11.315 -2.8889999 2.6730001 12
7.0939999 -1.771 1.086 15
7.6490002 -1.929 1.296 12
8.3129997 -2.118 1.548 13
9.1359997 -2.3540001 1.855 14
10.217 -2.664 2.2490001 15
11.479 -3.029 2.7260001 14
7.132 -1.839 1.098 15
7.698 -2.0050001 1.313 13
8.3780003 -2.2049999 1.569 13
9.2340002 -2.457 1.885 13
10.314 -2.776 2.283 15
11.57 -3.151 2.7620001 11
7.178 -1.909 1.113 15
7.7420001 -2.0799999 1.3279999 12
8.4300003 -2.289 1.5880001 15
9.3100004 -2.556 1.9119999 13
10.385 -2.8829999 2.312 14
11.688 -3.283 2.8050001 10
7.2140002 -1.979 1.126 14
7.7950001 -2.1589999 1.346 13
8.4980001 -2.378 1.61 13
9.3760004 -2.6530001 1.936 13
10.476 -2.9979999 2.345 12
11.834 -3.427 2.8559999 10
0 6.1440001 0 0
0 0 0 0
0 0 0 0
0 0 0 255
7.3060002 -2.125 1.155 13
7.901 -2.319 1.381 13
8.6409998 -2.562 1.6569999 14
9.5360003 -2.858 1.992 14
10.715 -3.2479999 2.425 14
12.107 -3.711 2.9549999 10
7.3540001 -2.1989999 1.171 15
7.9569998 -2.402 1.4 13
8.7220001 -2.6589999 1.683 13
9.6260004 -2.9649999 2.023 13
10.82 -3.3699999 2.4630001 11
12.286 -3.8699999 3.0150001 11
7.4050002 -2.2739999 1.187 15
8.0089998 -2.483 1.418 13
8.7869997 -2.7509999 1.706 13
9.7159996 -3.0739999 2.0539999 13
