# .PCD v0.7 - Point Cloud Data file format
VERSION 0.7
FIELDS x y z intensity
SIZE 4 4 4 4
TYPE F F F F
COUNT 1 1 1 1
WIDTH 1702
HEIGHT 1
VIEWPOINT 0 0 0 1 0 0 0
POINTS 1702
DATA ascii
7.6750002 2.549 1.405 13
8.3339996 2.783 1.6670001 13
5.7800002 1.9450001 0.67299998 19
6.1370001 2.0710001 0.815 16
6.5510001 2.2190001 0.97899997 17
7.059 2.401 1.1720001 15
7.6690001 2.6199999 1.403 13
8.323 2.8570001 1.664 13
5.7490001 1.988 0.66799998 18
6.125 2.125 0.81199998 16
6.5419998 2.277 0.97600001 16
7.0450001 2.4619999 1.17 16
7.6500001 2.6849999 1.399 13
8.3400002 2.9419999 1.668 19
5.7529998 2.0439999 0.667 18
6.1100001 2.178 0.80900002 17
6.5310001 2.335 0.97399998 17
7.039 2.526 1.168 15
7.6459999 2.756 1.398 13
8.3280001 3.016 1.666 27
5.7379999 2.0929999 0.66399997 18
6.099 2.2309999 0.80699998 16
6.5229998 2.3940001 0.972 17
0 0 0 50
7.632 2.822 1.396 13
8.3109999 3.0869999 1.663 40
5.7280002 2.1429999 0.662 18
6.098 2.2880001 0.80599999 16
6.5149999 2.4519999 0.97000003 17
7.0300002 2.655 1.166 15
7.618 2.8889999 1.3940001 13
8.2419996 3.1400001 1.65 39
5.717 2.194 0.66000003 17
6.0869999 2.342 0.80400002 16
6.5019999 2.5090001 0.96799999 16
7.0149999 2.7160001 1.164 14
7.6129999 2.96 1.393 13
8.2209997 3.21 1.647 31
5.7030001 2.2420001 0.65700001 17
6.0739999 2.3940001 0.801 16
6.4980001 2.5680001 0.96700001 16
7.0050001 2.779 1.1619999 13
7.6079998 3.029 1.393 12
8.2290001 3.29 1.649 14
5.6989999 2.2950001 0.65600002 17
6.0679998 2.4489999 0.80000001 16
6.4899998 2.6259999 0.96600002 16
6.9920001 2.839 1.16 13
7.5949998 3.096 1.391 12
8.2810001 3.3900001 1.661 13
5.6989999 2.349 0.65499997 17
6.0630002 2.5050001 0.79900002 16
6.4819999 2.6849999 0.96399999 16
6.98 2.901 1.158 15
7.5900002 3.1670001 1.391 14
8.2950001 3.4749999 1.665 28
5.6830001 2.3970001 0.653 19
6.0549998 2.5599999 0.79799998 18
6.4780002 2.7449999 0.96399999 16
6.9790001 2.967 1.158 14
7.6100001 3.247 1.395 18
8.2729998 3.5450001 1.663 38
0 6.1440001 0 0
0 0 0 0
0 0 0 0
0 0 0 255
5.6830001 2.451 0.65200001 18
6.0450001 2.612 0.796 18
6.4720001 2.8039999 0.963 17
6.9710002 3.03 1.158 14
7.6240001 3.325 1.4 29
8.2410002 3.609 1.658 42
5.684 2.5050001 0.65200001 17
6.0380001 2.6659999 0.796 17
6.4699998 2.865 0.96399999 16
6.9629998 3.092 1.158 14
7.5939999 3.385 1.396 43
8.1470003 3.6459999 1.641 34
5.6630001 2.549 0.64999998 20
0 0 0 50
6.4590001 2.921 0.963 16
6.9559999 3.155 1.158 16
7.5489998 3.4360001 1.3890001 42
8.1949997 3.7449999 1.654 20
5.6849999 2.6140001 0.65200001 18
6.0339999 2.779 0.796 17
6.4520001 2.9790001 0.96200001 17
6.9499998 3.217 1.158 14
7.5300002 3.4979999 1.388 29
8.2370005 3.8410001 1.665 13
5.6700001 2.6589999 0.65100002 18
6.0250001 2.8310001 0.79500002 17
6.4520001 3.039 0.96399999 15
6.9460001 3.2809999 1.159 13
7.5349998 3.5710001 1.391 20
8.2519999 3.9260001 1.671 13
5.6620002 2.7090001 0.64999998 17
6.026 2.888 0.796 17
6.4450002 3.096 0.96399999 15
6.948 3.3469999 1.161 14
7.5710001 3.6600001 1.4 15
8.2589998 4.007 1.676 13
5.6479998 2.7550001 0.64899999 18
6.0180001 2.941 0.796 17
6.4419999 3.155 0.96499997 15
6.9380002 3.408 1.1619999 14
7.6100001 3.75 1.41 22
8.2620001 4.0869999 1.6799999 12
5.6479998 2.8080001 0.64999998 16
6.0209999 2.9979999 0.79799998 15
6.4380002 3.214 0.96600002 16
6.9489999 3.4779999 1.166 15
7.6090002 3.8210001 1.413 37
8.276 4.1719999 1.687 13
5.6500001 2.8610001 0.65100002 16
6.0139999 3.0510001 0.79799998 15
6.4349999 3.2720001 0.96799999 13
6.9629998 3.55 1.171 24
7.5809999 3.8770001 1.4119999 42
8.2779999 4.25 1.692 13
5.645 2.9119999 0.65200001 16
6.013 3.1059999 0.80000001 15
6.4390001 3.3329999 0.97100002 15
6.9770002 3.6210001 1.176 36
7.5409999 3.927 1.408 40
8.3000002 4.3379998 1.701 13
5.6409998 2.961 0.653 16
0 0 0 50
6.4380002 3.391 0.97299999 15
6.947 3.6689999 1.175 38
7.546 3.9979999 1.413 23
8.3129997 4.421 1.709 13
5.6440001 3.0139999 0.65499997 16
6.0089998 3.214 0.80299997 14
6.4419999 3.4519999 0.97600001 15
6.927 3.7219999 1.175 38
7.5770001 4.0840001 1.423 15
8.342 4.513 1.72 13
5.6399999 3.063 0.65600002 17
6.0139999 3.27 0.80599999 15
6.4499998 3.5150001 0.98000002 13
6.914 3.777 1.176 25
7.6209998 4.177 1.436 14
8.3500004 4.5929999 1.728 12
5.645 3.1159999 0.65899998 16
6.0089998 3.322 0.80800003 15
6.4520001 3.573 0.98400003 13
6.96 3.865 1.188 15
7.631 4.2509999 1.443 13
8.3780003 4.684 1.74 12
5.6459999 3.1659999 0.66100001 16
6.0180001 3.3800001 0.81199998 15
6.4580002 3.6329999 0.98799998 13
6.9860001 3.941 1.197 17
7.6490002 4.3280001 1.451 13
8.3999996 4.7709999 1.75 12
5.652 3.2190001 0.66399997 16
6.0229998 3.4349999 0.81599998 15
6.4710002 3.698 0.99400002 15
7.0159998 4.0190001 1.206 25
7.6739998 4.4099998 1.461 13
8.4160004 4.8540001 1.761 12
0 6.1440001 0 0
0 0 0 0
0 0 0 0
0 0 0 255
5.652 3.2679999 0.667 16
6.0289998 3.49 0.81999999 15
6.5 3.7709999 1.003 25
7.0159998 4.0799999 1.211 37
7.6880002 4.4850001 1.471 16
8.4440002 4.9439998 1.774 14
5.6479998 3.313 0.66900003 17
6.0320001 3.5439999 0.824 16
6.4970002 3.8239999 1.006 39
7.0050001 4.1329999 1.215 46
0 0 0 50
8.474 5.0349998 1.788 13
5.652 3.3629999 0.67299998 16
6.0370002 3.5969999 0.82800001 16
6.4850001 3.8710001 1.0089999 49
6.9860001 4.1810002 1.217 32
7.743 4.6490002 1.494 16
8.5019999 5.1230001 1.801 14
5.6589999 3.415 0.67699999 17
6.0479999 3.654 0.83399999 15
6.4819999 3.924 1.013 39
7.0120001 4.2550001 1.227 20
7.7670002 4.7290001 1.505 16
8.54 5.2179999 1.818 13
5.6659999 3.4649999 0.68199998 15
6.0619998 3.711 0.84100002 15
6.4920001 3.983 1.02 25
7.0619998 4.3429999 1.242 15
7.79 4.8060002 1.517 15
8.5699997 5.3080001 1.8329999 14
5.6719999 3.513 0.68599999 15
6.0630002 3.76 0.84500003 14
6.527 4.0560002 1.031 15
7.0840001 4.4130001 1.252 15
7.8080001 4.8790002 1.528 16
8.6099997 5.401 1.851 13
5.6890001 3.5680001 0.69199997 15
6.079 3.8169999 0.852 15
6.5570002 4.125 1.0420001 18
7.1090002 4.4840002 1.263 15
7.842 4.9619999 1.543 15
8.6560001 5.4990001 1.87 14
5.6960001 3.615 0.69800001 15
6.1009998 3.878 0.86000001 19
6.579 4.1900001 1.051 26
7.1339998 4.5539999 1.274 15
0 0 0 50
8.7030001 5.5960002 1.89 14
5.71 3.6670001 0.704 15
6.1350002 3.944 0.87 26
6.5799999 4.2389998 1.057 36
7.1589999 4.6240001 1.286 16
7.902 5.1199999 1.571 15
8.7440004 5.6869998 1.909 14
5.7210002 3.714 0.70999998 15
6.1360002 3.9890001 0.87599999 36
6.5819998 4.2870002 1.064 42
7.1939998 4.697 1.3 15
7.9439998 5.204 1.589 15
8.7930002 5.783 1.9299999 14
5.724 3.756 0.71499997 15
6.132 4.0289998 0.88099998 41
6.592 4.3390002 1.072 32
7.223 4.7670002 1.313 16
7.9860001 5.2870002 1.6059999 15
8.8360004 5.8730001 1.95 13
5.7420001 3.8050001 0.722 15
6.1350002 4.0710001 0.88700002 36
6.6059999 4.3920002 1.081 22
7.2579999 4.8379998 1.327 15
8.0240002 5.3670001 1.623 15
8.9020004 5.9780002 1.976 12
5.7639999 3.8559999 0.73000002 15
6.151 4.1209998 0.89499998 26
6.6560001 4.4679999 1.096 15
0 0 0 50
8.0600004 5.4429998 1.6390001 15
8.9460001 6.0650001 1.9960001 12
5.7709999 3.8959999 0.73699999 15
6.1830001 4.1799998 0.90600002 15
6.6929998 4.533 1.109 13
7.316 4.9689999 1.353 15
8.0950003 5.5170002 1.656 15
9.0039997 6.1609998 2.0209999 13
5.79 3.9430001 0.74400002 14
6.2150002 4.237 0.917 15
6.7150002 4.5879998 1.119 13
7.355 5.0380001 1.369 16
8.1289997 5.5879998 1.6720001 15
9.0550003 6.2490001 2.0439999 11
5.8169999 3.9920001 0.75300002 17
6.2529998 4.2969999 0.92900002 21
6.75 4.6479998 1.133 14
7.382 5.098 1.382 15
8.1789999 5.6680002 1.693 15
9.1049995 6.336 2.066 2
0 6.1440001 0 0
0 0 0 0
0 0 0 0
0 0 0 255
5.8429999 4.0409999 0.76200002 22
6.277 4.3460002 0.93900001 27
6.7729998 4.6999998 1.1440001 14
7.4260001 5.1669998 1.399 14
8.224 5.7420001 1.712 15
9.1599998 6.4229999 2.0910001 10
5.8660002 4.0840001 0.77100003 31
6.2859998 4.3829999 0.94700003 36
6.8130002 4.7610002 1.158 14
7.4489999 5.2199998 1.4119999 14
8.2709999 5.816 1.7309999 15
9.2159996 6.5079999 2.115 10
5.8600001 4.1069999 0.77600002 40
6.2950001 4.4169998 0.95499998 38
6.836 4.8070002 1.169 14
7.4860001 5.2800002 1.428 14
8.3100004 5.882 1.75 15
9.2860003 6.5999999 2.1429999 11
5.8649998 4.1339998 0.78299999 45
6.303 4.4489999 0.96200001 40
6.8709998 4.8610001 1.183 15
7.5219998 5.3369999 1.443 15
8.3629999 5.954 1.771 15
9.349 6.6849999 2.1689999 11
5.882 4.1680002 0.79100001 42
6.3179998 4.4829998 0.97100002 31
6.895 4.9039998 1.194 15
7.5599999 5.3930001 1.459 15
8.4060001 6.0170002 1.79 15
0 0 0 50
5.8969998 4.198 0.79900002 34
6.336 4.5180001 0.98000002 23
6.9320002 4.954 1.2079999 15
7.5970001 5.4450002 1.474 14
8.4639997 6.0890002 1.812 16
9.5220003 6.8790002 2.2320001 12
5.908 4.224 0.80599999 24
6.3699999 4.5609999 0.99199998 16
6.9530001 4.9889998 1.2180001 15
7.6459999 5.5029998 1.492 16
8.5129995 6.1500001 1.832 15
9.5799999 6.9520001 2.257 11
5.9330001 4.256 0.815 19
6.4120002 4.6069999 1.0039999 14
6.9850001 5.0300002 1.232 15
7.6760001 5.5450001 1.506 15
8.5550003 6.2030001 1.851 13
9.651 7.0289998 2.2850001 13
5.9660001 4.2930002 0.82499999 14
6.434 4.6370001 1.0140001 15
7.0149999 5.0679998 1.244 15
7.717 5.592 1.521 15
8.5970001 6.2529998 1.868 13
9.717 7.0999999 2.3110001 13
5.9899998 4.3200002 0.833 14
6.4569998 4.665 1.024 15
7.0440001 5.1009998 1.256 15
7.7529998 5.632 1.5369999 15
8.6630001 6.3169999 1.891 12
9.7779999 7.1620002 2.335 13
6.0120001 4.3439999 0.84200001 15
0 0 0 50
7.0749998 5.1329999 1.267 15
7.79 5.6700001 1.551 15
8.6859999 6.3460002 1.905 12
9.8599997 7.237 2.365 13
6.0409999 4.3699999 0.85100001 17
6.506 4.7150002 1.043 15
7.1009998 5.158 1.278 14
7.8189998 5.698 1.564 15
8.7279997 6.3860002 1.9220001 11
9.9110003 7.2849998 2.3870001 12
6.0679998 4.3930001 0.86000001 20
6.5300002 4.7350001 1.052 15
7.1230001 5.178 1.288 14
7.855 5.7290001 1.5779999 15
8.7709999 6.4219999 1.939 11
9.9680004 7.3330002 2.4100001 12
6.0869999 4.4070001 0.86699998 23
6.5430002 4.7459998 1.0599999 15
7.1570001 5.2030001 1.3 14
7.8899999 5.7550001 1.591 15
8.8140001 6.4549999 1.957 12
10.026 7.3769999 2.4319999 14
6.098 4.4120002 0.87300003 26
6.5780001 4.7690001 1.0700001 15
7.1810002 5.2189999 1.3099999 15
7.915 5.7709999 1.602 15
8.8520002 6.48 1.971 12
10.082 7.415 2.4530001 14
6.1209998 4.4250002 0.88 28
6.5960002 4.777 1.077 14
7.2010002 5.2280002 1.319 15
7.9380002 5.7820001 1.612 15
8.8929996 6.5040002 1.987 8
10.136 7.448 2.473 14
0 6.1440001 0 0
0 0 0 0
0 0 0 0
0 0 0 255
6.1430001 4.4330001 0.88700002 29
6.6129999 4.7810001 1.084 14
0 0 0 50
7.973 5.7979999 1.624 15
8.9250002 6.5159998 2 12
10.181 7.4699998 2.4909999 13
6.1420002 4.4219999 0.89099997 34
6.6389999 4.789 1.092 14
7.2470002 5.2410002 1.335 14
7.9899998 5.7979999 1.632 15
8.9589996 6.527 2.0120001 12
10.213 7.4759998 2.5039999 14
6.1529999 4.4169998 0.89499998 35
6.6469998 4.7810001 1.097 14
7.2659998 5.2399998 1.342 15
8.0139999 5.7989998 1.641 15
8.9799995 6.5240002 2.0209999 12
10.267 7.4959998 2.5220001 11
6.1729999 4.4159999 0.90100002 32
6.6539998 4.77 1.101 14
7.2820001 5.2340002 1.348 14
8.04 5.7989998 1.649 16
9.0089998 6.5240002 2.0309999 12
10.299 7.494 2.5339999 13
6.197 4.4159999 0.90700001 29
6.678 4.7680001 1.107 15
7.3000002 5.2270002 1.354 15
8.0539999 5.7859998 1.655 17
9.0270004 6.5120001 2.0380001 12
10.324 7.4829998 2.5439999 14
6.2030001 4.401 0.91000003 26
6.6830001 4.75 1.11 14
7.309 5.21 1.358 13
8.059 5.763 1.658 15
9.0389996 6.4910002 2.043 10
0 0 0 50
6.211 4.3839998 0.91299999 25
6.6960001 4.7360001 1.114 13
7.3249998 5.1939998 1.363 14
8.073 5.7449999 1.663 14
9.0670004 6.4780002 2.0510001 11
10.362 7.4390001 2.5569999 11
6.2199998 4.3660002 0.91600001 23
6.7049999 4.7160001 1.117 13
7.3299999 5.1690001 1.365 13
8.0900002 5.724 1.6670001 15
9.0670004 6.4419999 2.0510001 11
10.365 7.4000001 2.5580001 12
6.223 4.3410001 0.917 21
6.7140002 4.6929998 1.119 13
7.3369999 5.1420002 1.3660001 14
8.0970001 5.6939998 1.669 15
9.0799999 6.4120002 2.0539999 11
10.358 7.349 2.5550001 11
6.2270002 4.3150001 0.91799998 20
6.7140002 4.6609998 1.119 13
7.3379998 5.1079998 1.3660001 14
8.0959997 5.6550002 1.668 15
9.1040001 6.3850002 2.059 12
10.363 7.3039999 2.5550001 12
6.223 4.2810001 0.917 18
6.7140002 4.6279998 1.119 14
7.3449998 5.0760002 1.367 15
8.1079998 5.6230001 1.669 15
9.1059999 6.3400002 2.0580001 9
10.339 7.2340002 2.5469999 13
6.217 4.243 0.91600001 14
6.7160001 4.5929999 1.118 13
7.3470001 5.039 1.367 15
0 0 0 50
9.0670004 6.2639999 2.0469999 14
10.346 7.1820002 2.546 12
6.2119999 4.2049999 0.91500002 14
6.7119999 4.552 1.117 13
7.3449998 4.9949999 1.364 15
8.0880003 5.5190001 1.661 15
9.0679998 6.2129998 2.0439999 14
10.32 7.1040001 2.536 13
6.198 4.1589999 0.91100001 19
6.7069998 4.5100002 1.114 14
7.3439999 4.9510002 1.362 15
8.0760002 5.4629998 1.656 16
9.0719995 6.1609998 2.0409999 13
10.299 7.0279999 2.5250001 13
6.191 4.1160002 0.90899998 24
6.704 4.467 1.112 14
7.336 4.9000001 1.358 15
8.0740004 5.4109998 1.652 15
9.0419998 6.0840001 2.0309999 15
10.271 6.9439998 2.513 11
6.1869998 4.0739999 0.90600002 32
6.671 4.402 1.104 17
7.3169999 4.8400002 1.351 15
8.0600004 5.349 1.646 16
9.0179996 6.0089998 2.0190001 16
10.235 6.8509998 2.4979999 13
0 6.1440001 0 0
0 0 0 0
0 0 0 0
0 0 0 255
6.1900001 4.0349998 0.90399998 39
6.6560001 4.3470001 1.098 26
7.303 4.7820001 1.345 15
8.0550003 5.2909999 1.64 15
9.0039997 5.9380002 2.0109999 16
10.2 6.757 2.4820001 12
6.1939998 3.9949999 0.90200001 42
6.6560001 4.3010001 1.095 36
7.29 4.723 1.3380001 15
8.033 5.2210002 1.63 16
8.9709997 5.8530002 1.997 17
10.144 6.6479998 2.46 12
6.21 3.961 0.90100002 38
6.6760001 4.2659998 1.094 40
7.277 4.6620002 1.331 15
8.0059996 5.145 1.62 15
8.9350004 5.7639999 1.982 17
10.102 6.546 2.4419999 11
6.2080002 3.915 0.89700001 29
6.6890001 4.2259998 1.092 41
7.2540002 4.5939999 1.322 15
7.987 5.0739999 1.61 16
8.9110003 5.6820002 1.969 18
10.048 6.4349999 2.4200001 12
0 0 0 50
6.6849999 4.1729999 1.0880001 29
7.2410002 4.5310001 1.3150001 15
7.9549999 4.9920001 1.597 15
8.8719997 5.5890002 1.9529999 18
9.9879999 6.3189998 2.3959999 12
6.1659999 3.7950001 0.884 16
6.6560001 4.1030002 1.0779999 20
7.217 4.46 1.3049999 15
7.9320002 4.9159999 1.585 17
8.8330002 5.4949999 1.936 19
9.9300003 6.2030001 2.3710001 12
6.1529999 3.7379999 0.87800002 15
6.632 4.0359998 1.068 16
7.1999998 4.3909998 1.295 16
7.8990002 4.8319998 1.571 17
8.8070002 5.4070001 1.9220001 18
9.8739996 6.0869999 2.3469999 11
6.1399999 3.681 0.87099999 15
6.5869999 3.9549999 1.056 22
7.1680002 4.3140001 1.283 14
7.8740001 4.7519999 1.558 15
8.7559996 5.303 1.901 15
9.8380003 5.9829998 2.3280001 11
6.1300001 3.625 0.86400002 13
6.5739999 3.8929999 1.048 34
7.1209998 4.2270002 1.268 17
7.8429999 4.6690001 1.544 14
8.7139997 5.2049999 1.882 14
9.7740002 5.8610001 2.3 12
6.1149998 3.5650001 0.85799998 14
6.5760002 3.8399999 1.043 42
7.0869999 4.1479998 1.255 31
7.809 4.5830002 1.529 14
8.677 5.1090002 1.864 14
9.6940002 5.73 2.27 11
6.1030002 3.507 0.85100001 14
6.5879998 3.7920001 1.038 36
7.0900002 4.0890002 1.248 42
7.777 4.4980001 1.5140001 15
8.6330004 5.0089998 1.844 15
9.6289997 5.6090002 2.2420001 14
6.092 3.45 0.84299999 13
6.572 3.727 1.029 22
7.0840001 4.0250001 1.239 34
7.7350001 4.4060001 1.497 15
8.5769997 4.901 1.822 15
9.559 5.4840002 2.2130001 13
6.0739999 3.388 0.83499998 15
6.5320001 3.648 1.016 16
7.0739999 3.9579999 1.23 22
7.7030001 4.3210001 1.482 15
8.5279999 4.7979999 1.8 15
9.4870005 5.3579998 2.1830001 14
6.0560002 3.325 0.82700002 14
6.5009999 3.5739999 1.0039999 14
7.0279999 3.8699999 1.214 15
7.6620002 4.23 1.465 15
8.4910002 4.7020001 1.7819999 16
9.4300003 5.2399998 2.1570001 14
6.0419998 3.2639999 0.81900001 13
6.4850001 3.5079999 0.995 15
6.9619999 3.773 1.194 27
7.6209998 4.1389999 1.447 15
8.4359999 4.5960002 1.7589999 16
9.3579998 5.1149998 2.1270001 14
6.0229998 3.201 0.81 13
6.461 3.437 0.98400003 15
6.9419999 3.7 1.183 44
7.54 4.0279999 1.4220001 21
8.3879995 4.494 1.737 16
9.2779999 4.9860001 2.095 15
0 6.1440001 0 0
0 0 0 0
0 0 0 0
0 0 0 255
6 3.1359999 0.80000001 13
6.4359999 3.3670001 0.97299999 15
6.954 3.6440001 1.176 38
7.5120001 3.9449999 1.4069999 43
8.3299999 4.3860002 1.714 16
9.2150002 4.868 2.0680001 14
5.9920001 3.0780001 0.79299998 15
6.4180002 3.3 0.963 15
6.9390001 3.573 1.165 25
7.52 3.881 1.399 44
8.2819996 4.2849998 1.693 16
9.1520004 4.75 2.04 15
5.9759998 3.017 0.78399998 14
6.3909998 3.2290001 0.95200002 15
6.9000001 3.49 1.15 15
7.5089998 3.806 1.387 29
8.2320004 4.1830001 1.671 16
9.0930004 4.6350002 2.013 15
5.9569998 2.9530001 0.77499998 15
6.3670001 3.1589999 0.94 15
6.8629999 3.4089999 1.135 14
7.4489999 3.707 1.3660001 17
8.1809998 4.0819998 1.649 17
9.0100002 4.5089998 1.9809999 15
5.9419999 2.892 0.76700002 15
6.3499999 3.0929999 0.93000001 16
6.8319998 3.332 1.122 14
7.3569999 3.5940001 1.339 29
8.1199999 3.9760001 1.625 16
8.9589996 4.4000001 1.956 16
5.9190001 2.8280001 0.75700003 15
6.3280001 3.0250001 0.91900003 15
6.8060002 3.257 1.109 14
7.3460002 3.5209999 1.327 47
8.0439997 3.8640001 1.598 20
8.8900003 4.2820001 1.928 16
5.8930001 2.7620001 0.74699998 14
0 0 0 50
6.7820001 3.1830001 1.096 15
7.3709998 3.464 1.322 40
0 0 0 0
8.8039999 4.1570001 1.895 15
5.8829999 2.7030001 0.73900002 16
6.2859998 2.8889999 0.898 15
6.757 3.109 1.0829999 15
7.3299999 3.378 1.304 22
7.9860001 3.688 1.563 46
8.7650003 4.0570002 1.873 15
5.8530002 2.6359999 0.72799999 15
6.257 2.8199999 0.88599998 16
6.7249999 3.033 1.069 16
7.2649999 3.2809999 1.283 15
7.973 3.6070001 1.549 28
8.6920004 3.941 1.845 15
5.8309999 2.5739999 0.71899998 15
6.2350001 2.753 0.87599999 16
6.6939998 2.957 1.056 15
7.2290001 3.198 1.267 14
7.8530002 3.48 1.515 16
8.6339998 3.8340001 1.819 14
5.8210001 2.517 0.71100003 13
6.2090001 2.6849999 0.86500001 15
6.671 2.8859999 1.044 15
7.1939998 3.1159999 1.251 14
7.7880001 3.378 1.4910001 34
8.5489998 3.7160001 1.788 14
5.809 2.4579999 0.70300001 15
6.1880002 2.619 0.85399997 15
6.638 2.8110001 1.03 15
7.1609998 3.0350001 1.2359999 13
7.7969999 3.3099999 1.482 44
8.4499998 3.5929999 1.755 31
5.7709999 2.3900001 0.69199997 14
6.164 2.552 0.84299999 14
6.6079998 2.737 1.017 15
7.1290002 2.9560001 1.22 14
7.8140001 3.244 1.474 29
8.4569998 3.5179999 1.744 46
5.7589998 2.3329999 0.68400002 16
6.1350002 2.4849999 0.83200002 14
6.579 2.665 1.005 15
7.098 2.8770001 1.206 14
7.717 3.131 1.4450001 14
8.4420004 3.431 1.728 32
5.7340002 2.2709999 0.67500001 15
6.1149998 2.421 0.82200003 15
6.552 2.5940001 0.99199998 16
7.0739999 2.802 1.193 14
7.677 3.0439999 1.427 15
8.3459997 3.3139999 1.697 17
5.7140002 2.211 0.66600001 15
6.0910001 2.355 0.81199998 15
6.5209999 2.5209999 0.97899997 16
7.0380001 2.723 1.177 15
7.6350002 2.9560001 1.409 14
8.2440004 3.1960001 1.664 37
0 6.1440001 0 0
0 0 0 0
0 0 0 0
0 0 0 255
5.6939998 2.152 0.65799999 15
6.0279999 2.276 0.79699999 17
6.4980001 2.454 0.96799999 16
7.0149999 2.6489999 1.164 16
7.6009998 2.8729999 1.392 17
8.2449999 3.1199999 1.653 47
5.677 2.095 0.64999998 15
6.0489998 2.23 0.79299998 15
6.474 2.385 0.95700002 16
6.974 2.5699999 1.149 17
7.5669999 2.789 1.376 17
8.2550001 3.046 1.643 30
5.664 2.039 0.64200002 16
6.0310001 2.168 0.78399998 15
6.4429998 2.3150001 0.94499999 17
6.9349999 2.4920001 1.1339999 16
7.5289998 2.7060001 1.359 17
8.1660004 2.938 1.615 15
5.6490002 1.982 0.63499999 17
5.9860001 2.098 0.77100003 16
6.4190001 2.2490001 0.93400002 16
6.9039998 2.418 1.12 17
7.494 2.625 1.3430001 17
8.1129999 2.8440001 1.5930001 15
5.6259999 1.925 0.62699997 17
6 2.05 0.76700002 15
6.3930001 2.1819999 0.92299998 18
6.8670001 2.3429999 1.107 18
7.4549999 2.543 1.327 16
0 0 0 50
5.6110001 1.869 0.61900002 17
0 0 0 0
6.3670001 2.1159999 0.91299999 16
6.836 2.27 1.094 18
7.4310002 2.467 1.314 17
8.0340004 2.668 1.557 16
5.598 1.8150001 0.61199999 17
5.941 1.923 0.74699998 17
6.3449998 2.0510001 0.90200001 16
6.803 2.198 1.081 18
7.3979998 2.3889999 1.299 17
7.9920001 2.5810001 1.539 17
5.5869999 1.762 0.60600001 17
5.921 1.864 0.73900002 17
6.323 1.988 0.89300001 17
6.7709999 2.1270001 1.068 17
7.3649998 2.3110001 1.285 18
7.9559999 2.497 1.522 17
5.572 1.7079999 0.59899998 16
5.915 1.8099999 0.73199999 19
6.302 1.925 0.884 17
6.7509999 2.0599999 1.058 18
7.336 2.2360001 1.272 19
7.927 2.4159999 1.508 16
5.5580001 1.655 0.59299999 18
5.8940001 1.751 0.72399998 18
6.2870002 1.864 0.875 17
6.724 1.9910001 1.0470001 19
7.309 2.1619999 1.2589999 19
7.8870001 2.332 1.4910001 19
5.5370002 1.6 0.58600003 18
5.8800001 1.6950001 0.71700001 18
6.2579999 1.8 0.86500001 17
6.7030001 1.925 1.0369999 18
7.277 2.0880001 1.2460001 19
7.8610001 2.253 1.477 18
5.5240002 1.548 0.57999998 17
5.8639998 1.6390001 0.70999998 18
6.2319999 1.738 0.85600001 20
6.6859999 1.8609999 1.028 18
7.2490001 2.0139999 1.234 17
7.8330002 2.174 1.464 16
5.5139999 1.497 0.574 15
5.8400002 1.581 0.70200002 15
6.2049999 1.675 0.847 17
6.6669998 1.796 1.0190001 16
7.2189999 1.941 1.222 17
7.7979999 2.0940001 1.449 15
5.5110002 1.448 0.56999999 14
5.8239999 1.525 0.69599998 16
6.1890001 1.617 0.83899999 16
6.6479998 1.732 1.01 15
7.1890001 1.87 1.21 16
7.7719998 2.0179999 1.437 16
5.5 1.397 0.56400001 14
0 0 0 50
6.184 1.561 0.833 17
6.6279998 1.669 1.001 15
7.1690001 1.801 1.2 17
7.7470002 1.943 1.425 18
5.4910002 1.348 0.56 14
5.8010001 1.419 0.68400002 15
6.165 1.502 0.82599998 17
6.6170001 1.608 0.99400002 16
7.1440001 1.7309999 1.1900001 17
7.717 1.8660001 1.413 16
0 6.1440001 0 0
0 0 0 0
0 0 0 0
0 0 0 255
5.4780002 1.298 0.55500001 14
5.7930002 1.367 0.67900002 15
6.1620002 1.448 0.82099998 17
6.5809999 1.541 0.98299998 17
7.1279998 1.665 1.181 17
7.6900001 1.7920001 1.401 17
5.4699998 1.248 0.55000001 14
5.783 1.314 0.67400002 15
6.1440001 1.391 0.81400001 16
6.572 1.482 0.977 17
7.1009998 1.596 1.1720001 16
7.6680002 1.719 1.391 16
5.4549999 1.198 0.54500002 16
5.7789998 1.2640001 0.67000002 16
6.138 1.336 0.80900002 16
6.5510001 1.421 0.97000003 18
7.0869999 1.531 1.164 17
7.6500001 1.647 1.382 17
5.4510002 1.151 0.542 16
5.7719998 1.2130001 0.66500002 15
6.1279998 1.2819999 0.80400002 18
6.5430002 1.363 0.96399999 18
7.0749998 1.4680001 1.1569999 16
7.6240001 1.576 1.372 16
5.4510002 1.105 0.53899997 17
5.7600002 1.1619999 0.66100001 14
6.118 1.227 0.79900002 17
6.54 1.306 0.95999998 19
7.0500002 1.402 1.148 17
7.598 1.5039999 1.362 16
5.4390001 1.057 0.53500003 16
5.7550001 1.112 0.65700001 15
6.1059999 1.173 0.79400003 17
6.5229998 1.247 0.95300001 18
0 0 0 0
7.5890002 1.437 1.355 17
5.4380002 1.011 0.53200001 15
5.7490001 1.062 0.65399998 16
6.1040001 1.1210001 0.79100001 17
0 0 0 50
7.0289998 1.277 1.137 17
7.5760002 1.369 1.349 17
5.4359999 0.96600002 0.52999997 16
5.7490001 1.0140001 0.65100002 16
6.0970001 1.068 0.787 17
6.5100002 1.133 0.94499999 19
0 0 0 0
7.5630002 1.302 1.342 17
5.4200001 0.917 0.52600002 16
5.7379999 0.96399999 0.648 16
6.0949998 1.017 0.78399998 16
6.5019999 1.077 0.94099998 18
6.9710002 1.148 1.1210001 18
7.5510001 1.235 1.336 17
5.4250002 0.87300003 0.52499998 16
5.7410002 0.917 0.64600003 15
6.086 0.96399999 0.78100002 16
6.4920001 1.021 0.93599999 18
6.9840002 1.09 1.12 19
7.54 1.169 1.331 16
5.4229999 0.82800001 0.523 18
5.7340002 0.86799997 0.64300001 15
6.0879998 0.91399997 0.77899998 17
6.493 0.96700001 0.93400002 19
0 0 0 0
7.54 1.105 1.3279999 18
5.4190001 0.78299999 0.52100003 17
5.7199998 0.81800002 0.63999999 16
0 0 0 50
6.494 0.912 0.93199998 18
7.0040002 0.97500002 1.118 17
7.5380001 1.04 1.325 17
5.414 0.73699999 0.51899999 17
5.7290001 0.77200001 0.639 15
6.0869999 0.81300002 0.77499998 17
6.4959998 0.85900003 0.93099999 17
6.9489999 0.91000003 1.107 18
7.5310001 0.97600001 1.321 17
5.4190001 0.69400001 0.51800001 17
5.7290001 0.72500002 0.63800001 16
6.0770001 0.76099998 0.773 16
6.4910002 0.80299997 0.92799997 17
6.9899998 0.85600001 1.112 19
7.5240002 0.912 1.318 17
5.4310002 0.65100002 0.51899999 16
5.7379999 0.67900002 0.63800001 15
6.086 0.71200001 0.773 16
6.4889998 0.74900001 0.92699999 18
6.9959998 0.79799998 1.1109999 19
7.5209999 0.84799999 1.316 16
5.4219999 0.60500002 0.51700002 17
5.737 0.63200003 0.63700002 15
6.0580001 0.65799999 0.76800001 15
0 0 0 50
6.993 0.74000001 1.11 19
7.5190001 0.78600001 1.314 16
0 6.1440001 0 0
0 0 0 0
0 0 0 0
0 0 0 255
5.4219999 0.56099999 0.51700002 15
5.737 0.58499998 0.63599998 15
6.086 0.61199999 0.77100003 17
6.494 0.64300001 0.926 18
6.9699998 0.68000001 1.105 17
7.5289998 0.72399998 1.3150001 16
5.4349999 0.51899999 0.51800001 16
5.7410002 0.53899997 0.63599998 14
6.092 0.56199998 0.77100003 16
6.4980001 0.58999997 0.926 17
7.0029998 0.625 1.11 16
7.5209999 0.66100001 1.313 16
5.4299998 0.47400001 0.51700002 16
5.7449999 0.493 0.63700002 14
6.099 0.514 0.77200001 16
6.487 0.53600001 0.92400002 16
7.013 0.56900001 1.1109999 16
7.5370002 0.60000002 1.316 17
5.4419999 0.43200001 0.51800001 16
5.7459998 0.447 0.63700002 14
0 0 0 50
6.5079999 0.48500001 0.92699999 18
6.9809999 0.509 1.1059999 17
7.5500002 0.53899997 1.318 16
5.4520001 0.389 0.51899999 14
5.7529998 0.40099999 0.63800001 14
6.105 0.41499999 0.773 16
6.52 0.433 0.92900002 18
7.033 0.45500001 1.115 16
7.5549998 0.477 1.319 16
5.454 0.34599999 0.51999998 15
5.7589998 0.35499999 0.639 14
6.118 0.36700001 0.77499998 17
6.5370002 0.382 0.93199998 17
7.0349998 0.39899999 1.1160001 15
7.5669999 0.417 1.322 16
5.46 0.303 0.52100003 16
5.7659998 0.31 0.63999999 14
6.1220002 0.31900001 0.77600002 17
6.5339999 0.329 0.93199998 17
7.04 0.34299999 1.117 15
7.5739999 0.35600001 1.324 16
5.46 0.25999999 0.52200001 14
5.776 0.26499999 0.64200002 14
0 0 0 50
6.5469999 0.278 0.935 16
7.0599999 0.28600001 1.122 16
7.5869999 0.29499999 1.3279999 16
5.4720001 0.21799999 0.52399999 15
5.7820001 0.219 0.64399999 14
6.1360002 0.222 0.77999997 16
6.566 0.226 0.93900001 14
7.073 0.23 1.125 16
7.6040001 0.234 1.332 16
5.4850001 0.175 0.52600002 14
5.79 0.17399999 0.64600003 14
6.1459999 0.17399999 0.78299999 16
6.572 0.17399999 0.94199997 17
7.0780001 0.17399999 1.128 15
7.6139998 0.17399999 1.336 17
5.4879999 0.132 0.528 14
5.809 0.13 0.64999998 15
6.1630001 0.126 0.787 15
6.579 0.122 0.94400001 16
7.1030002 0.119 1.1339999 16
0 0 0 50
5.5029998 0.090000004 0.53100002 13
5.8179998 0.085000001 0.65200001 14
6.1729999 0.078000002 0.79000002 16
6.5910001 0.071000002 0.94800001 16
7.1160002 0.063000001 1.138 15
7.651 0.052999999 1.347 15
5.5180001 0.048 0.53399998 13
5.8319998 0.039999999 0.65600002 15
6.1849999 0.029999999 0.79299998 15
6.6199999 0.018999999 0.95499998 14
7.1279998 0.0070000002 1.142 15
7.6680002 -0.0070000002 1.353 16
5.52 0.0049999999 0.53600001 14
5.8449998 -0.0049999999 0.65899998 14
6.1989999 -0.017000001 0.79699999 15
6.6300001 -0.030999999 0.958 14
0 0 0 50
7.6890001 -0.067000002 1.36 16
5.5159998 -0.035999998 0.537 19
5.8499999 -0.050000001 0.662 14
6.2179999 -0.064999998 0.80199999 15
6.6570001 -0.082999997 0.96499997 15
7.1700001 -0.104 1.155 15
7.7129998 -0.12800001 1.367 15
5.5359998 -0.078000002 0.542 31
5.8699999 -0.094999999 0.66600001 14
6.2329998 -0.114 0.80699998 16
6.6589999 -0.13500001 0.96799999 17
7.1919999 -0.161 1.1619999 15
7.7410002 -0.189 1.376 15
0 6.1440001 0 0
0 0 0 0
0 0 0 0
0 0 0 255
5.5489998 -0.121 0.54500002 34
5.888 -0.14 0.671 15
6.2410002 -0.162 0.81 16
6.6880002 -0.18700001 0.97500002 16
0 0 0 50
7.7670002 -0.25 1.3839999 17
5.5580001 -0.163 0.54799998 35
5.8860002 -0.185 0.67299998 16
6.2610002 -0.20999999 0.81599998 15
6.7080002 -0.23899999 0.98199999 16
7.2290001 -0.273 1.174 17
7.7940001 -0.31099999 1.393 18
5.5819998 -0.206 0.55299997 36
5.9089999 -0.23100001 0.67900002 30
6.2740002 -0.25799999 0.82099998 16
6.7290001 -0.29100001 0.98799998 16
7.2810001 -0.331 1.187 18
7.8239999 -0.373 1.403 17
5.6059999 -0.249 0.55800003 19
5.927 -0.27599999 0.68400002 31
6.3130002 -0.30700001 0.829 14
6.756 -0.34400001 0.995 16
0 0 0 50
7.8649998 -0.435 1.415 17
5.6230001 -0.292 0.56300002 14
5.947 -0.32100001 0.68900001 31
6.3070002 -0.354 0.83099997 16
6.7690001 -0.39500001 1.001 15
7.3099999 -0.44299999 1.2 16
7.888 -0.49700001 1.424 16
5.6370001 -0.33399999 0.56699997 13
5.9660001 -0.366 0.69499999 32
6.3249998 -0.40200001 0.83700001 29
6.7859998 -0.447 1.008 16
7.3470001 -0.50099999 1.21 17
7.9260001 -0.55900002 1.436 16
5.6550002 -0.377 0.57200003 14
5.993 -0.41299999 0.70099998 18
6.3530002 -0.45100001 0.84500003 35
6.8179998 -0.5 1.016 15
7.3730001 -0.55800003 1.219 17
0 0 0 50
5.6739998 -0.41999999 0.57700002 14
5.9949999 -0.45699999 0.70499998 15
6.3769999 -0.50099999 0.852 35
6.8470001 -0.55299997 1.025 16
7.4039998 -0.61500001 1.229 17
8.0059996 -0.685 1.461 17
5.6810002 -0.46200001 0.58099997 14
5.9819999 -0.5 0.70700002 13
6.4060001 -0.55000001 0.85900003 35
6.8660002 -0.60600001 1.0319999 15
7.4330001 -0.67400002 1.239 17
8.0410004 -0.74900001 1.473 15
5.7030001 -0.505 0.58600003 14
6.0149999 -0.54699999 0.71399999 13
6.441 -0.60100001 0.86799997 20
6.8940001 -0.65899998 1.041 15
7.4679999 -0.73199999 1.249 16
8.0790005 -0.81199998 1.485 16
5.7259998 -0.54900002 0.59200001 15
6.046 -0.59299999 0.72100002 15
6.4569998 -0.64899999 0.87400001 14
6.9190001 -0.71200001 1.049 15
7.5029998 -0.79100001 1.261 17
8.1049995 -0.875 1.4960001 15
0 0 0 50
0 0 0 0
6.4790001 -0.69800001 0.88099998 14
6.9460001 -0.76499999 1.058 16
7.5359998 -0.84899998 1.271 17
8.1490002 -0.93900001 1.51 15
5.7550001 -0.634 0.602 14
6.092 -0.68599999 0.73400003 15
6.5009999 -0.74699998 0.889 14
6.9720001 -0.81800002 1.066 15
7.572 -0.90799999 1.283 14
8.1969995 -1.0039999 1.524 15
5.7789998 -0.67799997 0.60799998 14
6.1100001 -0.73100001 0.741 15
6.5279999 -0.79699999 0.89700001 14
7 -0.87199998 1.075 15
7.6079998 -0.96700001 1.294 16
8.2399998 -1.069 1.539 16
5.7950001 -0.72000003 0.61299998 14
0 0 0 0
6.5549998 -0.847 0.90499997 14
7.0300002 -0.926 1.085 15
7.6360002 -1.026 1.304 15
8.2860003 -1.135 1.553 14
5.8060002 -0.76300001 0.61799997 14
6.1690001 -0.82499999 0.755 13
0 0 0 50
7.0560002 -0.97899997 1.094 16
7.6690001 -1.084 1.3150001 14
8.3260002 -1.199 1.567 13
0 6.1440001 0 0
0 0 0 0
0 0 0 0
0 0 0 255
5.8270001 -0.80599999 0.62400001 13
6.1880002 -0.87 0.76200002 13
6.612 -0.94700003 0.921 14
7.0999999 -1.035 1.105 15
7.7080002 -1.1440001 1.3279999 15
8.3629999 -1.263 1.58 13
5.8499999 -0.84899998 0.63 14
6.2059999 -0.91600001 0.76800001 12
6.6269999 -0.995 0.92799997 13
7.118 -1.087 1.113 15
7.7389998 -1.202 1.339 16
8.4239998 -1.332 1.598 18
5.8520002 -0.889 0.634 13
0 0 0 50
6.6560001 -1.044 0.93599999 13
7.1479998 -1.141 1.123 18
7.7810001 -1.263 1.351 15
8.4750004 -1.399 1.614 22
5.8779998 -0.93300003 0.63999999 14
6.2490001 -1.008 0.78100002 14
6.6810002 -1.095 0.94400001 14
7.1859999 -1.196 1.1339999 17
7.8140001 -1.322 1.363 16
8.5100002 -1.464 1.627 22
5.888 -0.97500002 0.64399999 13
6.2810001 -1.0549999 0.78899997 14
6.7069998 -1.1440001 0.95200002 14
7.2189999 -1.251 1.1440001 16
7.849 -1.381 1.374 15
8.5469999 -1.528 1.64 13
5.9180002 -1.0190001 0.65100002 15
6.3060002 -1.101 0.796 15
6.7319999 -1.193 0.95999998 14
7.243 -1.303 1.152 14
7.8800001 -1.439 1.385 17
8.5869999 -1.5930001 1.654 13
5.9239998 -1.058 0.65499997 14
0 0 0 50
6.7659998 -1.243 0.96899998 15
7.2820001 -1.358 1.163 15
7.9219999 -1.499 1.398 15
8.6350002 -1.659 1.67 12
5.9419999 -1.1 0.66000003 13
6.3270001 -1.188 0.80599999 14
6.7789998 -1.29 0.97500002 14
7.303 -1.41 1.171 14
7.9530001 -1.557 1.409 13
8.6809998 -1.725 1.684 12
5.9520001 -1.14 0.66500002 14
6.3499999 -1.233 0.81199998 14
6.796 -1.337 0.98100001 14
7.3330002 -1.4630001 1.1799999 15
7.9879999 -1.6160001 1.42 13
8.7220001 -1.79 1.698 12
5.9679999 -1.182 0.67000002 14
6.3670001 -1.277 0.81800002 14
6.8200002 -1.386 0.98900002 14
7.355 -1.5140001 1.188 12
8.0240002 -1.675 1.431 13
8.7600002 -1.855 1.711 12
6.0050001 -1.227 0.67699999 15
6.388 -1.322 0.824 15
6.8390002 -1.433 0.995 14
7.3670001 -1.563 1.194 14
8.059 -1.733 1.442 13
8.802 -1.92 1.725 12
6.0110002 -1.266 0.68000001 15
6.4060001 -1.365 0.82999998 14
6.8610001 -1.48 1.002 14
7.3990002 -1.6160001 1.2029999 15
8.0780001 -1.788 1.45 12
8.8330002 -1.9809999 1.7359999 12
6.0289998 -1.306 0.685 16
6.4289999 -1.409 0.83600003 15
6.8860002 -1.527 1.0089999 13
7.415 -1.665 1.21 13
8.1009998 -1.842 1.459 13
8.8719997 -2.0439999 1.748 13
6.039 -1.344 0.68900001 15
6.4419999 -1.45 0.83999997 14
0 0 0 50
7.4450002 -1.716 1.2180001 12
8.1269999 -1.897 1.467 13
8.908 -2.1059999 1.76 13
6.073 -1.387 0.69499999 16
6.46 -1.492 0.84500003 15
6.9120002 -1.615 1.0190001 14
7.46 -1.763 1.224 15
8.1540003 -1.951 1.476 13
8.941 -2.1670001 1.771 12
6.0679998 -1.4220001 0.69700003 15
6.4770002 -1.534 0.85000002 15
6.9299998 -1.66 1.024 14
7.4819999 -1.812 1.2309999 14
8.1800003 -2.0050001 1.484 13
8.9619999 -2.224 1.78 12
0 6.1440001 0 0
0 0 0 0
0 0 0 0
0 0 0 255
6.085 -1.461 0.70099998 16
6.493 -1.575 0.85399997 15
6.9489999 -1.704 1.029 14
7.5040002 -1.86 1.237 14
8.2060003 -2.059 1.493 13
9.0030003 -2.2850001 1.7920001 12
6.0970001 -1.497 0.704 16
6.506 -1.614 0.85799998 14
6.967 -1.747 1.034 15
7.5190001 -1.906 1.243 13
8.2309999 -2.1099999 1.499 14
9.0249996 -2.342 1.799 12
6.1059999 -1.533 0.70700002 16
6.52 -1.654 0.86199999 15
6.9809999 -1.789 1.038 15
7.54 -1.9529999 1.248 14
8.2530003 -2.161 1.506 13
9.0550003 -2.3989999 1.809 11
6.132 -1.573 0.71100003 13
6.5250001 -1.6900001 0.86400002 15
6.994 -1.829 1.0420001 16
7.5570002 -1.997 1.253 14
8.2650003 -2.2079999 1.511 15
9.0749998 -2.4519999 1.8150001 11
6.1259999 -1.603 0.71100003 14
6.5310001 -1.725 0.866 15
6.9990001 -1.867 1.044 16
7.5679998 -2.039 1.256 15
8.2799997 -2.2550001 1.516 14
9.099 -2.5050001 1.822 12
6.1389999 -1.638 0.713 17
6.5479999 -1.763 0.86900002 16
7.0110002 -1.906 1.0470001 15
7.5780001 -2.0799999 1.2589999 14
8.2910004 -2.3 1.5190001 14
9.1210003 -2.5569999 1.8279999 12
6.1430001 -1.669 0.71399999 18
6.546 -1.795 0.86900002 15
7.0219998 -1.943 1.049 15
7.5929999 -2.122 1.263 14
8.3070002 -2.345 1.523 14
9.1370001 -2.6059999 1.832 13
0 0 0 50
6.5570002 -1.829 0.87099999 15
7.027 -1.978 1.05 15
7.5929999 -2.158 1.263 14
8.3129997 -2.3859999 1.524 14
9.1529999 -2.654 1.836 12
6.158 -1.732 0.71600002 19
6.5539999 -1.859 0.87099999 15
7.0349998 -2.013 1.051 14
7.6079998 -2.197 1.265 14
8.3199997 -2.4260001 1.526 13
9.1499996 -2.694 1.835 12
6.152 -1.758 0.71499997 14
6.5640001 -1.891 0.87199998 18
7.04 -2.046 1.052 15
7.612 -2.2320001 1.266 14
8.3330002 -2.4660001 1.527 13
9.1660004 -2.7390001 1.8380001 12
6.1750002 -1.7920001 0.71700001 16
6.5609999 -1.919 0.87 16
7.0380001 -2.075 1.051 15
7.612 -2.2639999 1.265 14
8.3360004 -2.5020001 1.527 13
9.1560001 -2.7739999 1.835 12
6.152 -1.811 0.71399999 16
6.566 -1.948 0.87 16
7.0359998 -2.1040001 1.049 16
7.6149998 -2.296 1.2640001 14
8.3400002 -2.5369999 1.527 13
9.1700001 -2.816 1.837 12
6.1599998 -1.8380001 0.713 15
6.5689998 -1.975 0.86900002 16
7.0320001 -2.1300001 1.048 17
7.6030002 -2.322 1.26 16
8.3290005 -2.566 1.523 13
9.158 -2.8469999 1.832 12
0 0 0 50
6.552 -1.995 0.86500001 15
7.0310001 -2.1559999 1.045 16
7.605 -2.3510001 1.2589999 14
8.3240004 -2.595 1.52 13
9.1420002 -2.875 1.826 12
6.1620002 -1.885 0.70999998 16
6.552 -2.0179999 0.86299998 15
7.0180001 -2.177 1.041 15
7.6009998 -2.3759999 1.255 15
8.3140001 -2.6210001 1.515 13
9.1389999 -2.905 1.823 12
6.1500001 -1.903 0.70599997 16
6.5419998 -2.0369999 0.85900003 15
7.0120001 -2.1989999 1.038 14
7.5900002 -2.398 1.251 16
8.3039999 -2.645 1.51 14
9.118 -2.928 1.8150001 12
0 6.1440001 0 0
0 0 0 0
0 0 0 0
0 0 0 255
6.1329999 -1.918 0.70200002 15
6.5349998 -2.056 0.85500002 16
7.0100002 -2.221 1.034 14
7.5679998 -2.415 1.244 14
8.2930002 -2.6670001 1.5039999 14
9.1000004 -2.95 1.807 12
6.1230001 -1.934 0.69800001 17
6.5240002 -2.073 0.85100001 16
6.993 -2.2360001 1.028 15
7.552 -2.4319999 1.237 14
8.2709999 -2.6830001 1.4960001 14
9.0799999 -2.9690001 1.798 12
6.1139998 -1.949 0.69300002 14
6.5149999 -2.089 0.84600002 15
6.9819999 -2.253 1.022 14
7.54 -2.4489999 1.2309999 14
8.2530003 -2.7 1.488 13
9.0530005 -2.984 1.788 12
6.0999999 -1.961 0.68800002 14
6.4990001 -2.1010001 0.83999997 15
6.961 -2.2639999 1.015 14
7.5180001 -2.461 1.223 14
8.2349997 -2.714 1.479 14
9.0270004 -2.997 1.776 11
6.0900002 -1.973 0.68300003 15
6.4809999 -2.1110001 0.83399999 15
6.9439998 -2.2750001 1.008 14
7.4970002 -2.471 1.214 14
8.2060003 -2.723 1.4680001 13
8.9849997 -3.003 1.762 12
6.098 -1.989 0.67900002 16
6.467 -2.1199999 0.82700002 15
6.9239998 -2.283 1 14
7.4710002 -2.4779999 1.204 13
8.1789999 -2.73 1.457 14
8.9429998 -3.0050001 1.7460001 12
6.0599999 -1.989 0.671 15
6.4520001 -2.128 0.81999999 14
6.9039998 -2.29 0.99199998 12
7.454 -2.4860001 1.196 14
0 0 0 50
8.9119997 -3.01 1.734 12
6.0539999 -1.999 0.66500002 17
6.4289999 -2.132 0.81199998 15
6.8829999 -2.2939999 0.98299998 14
7.4169998 -2.4860001 1.184 13
8.1079998 -2.733 1.431 14
8.8789997 -3.0120001 1.719 13
6.0349998 -2.0020001 0.65799999 16
6.414 -2.1370001 0.80500001 16
6.862 -2.2969999 0.97500002 14
7.3979998 -2.49 1.174 14
8.0719995 -2.7309999 1.418 15
8.8280001 -3.0050001 1.701 13
6.0089998 -2.0020001 0.64999998 15
6.388 -2.1370001 0.796 16
6.8239999 -2.293 0.963 15
7.3629999 -2.4860001 1.1619999 13
8.033 -2.727 1.403 14
8.7889996 -3.0009999 1.6849999 13
5.9770002 -1.998 0.64099997 17
6.3600001 -2.1340001 0.78600001 15
6.8010001 -2.2920001 0.95300001 15
7.3309999 -2.4820001 1.15 13
7.9970002 -2.721 1.3890001 13
8.7440004 -2.9920001 1.668 13
5.9510002 -1.995 0.63300002 17
6.3390002 -2.1329999 0.778 16
6.7750001 -2.289 0.94300002 15
0 0 0 50
7.9569998 -2.7130001 1.374 13
8.691 -2.9779999 1.649 13
5.9400001 -1.995 0.625 16
6.3130002 -2.128 0.76800001 16
6.7449999 -2.2820001 0.93099999 14
7.2670002 -2.4679999 1.125 14
7.9060001 -2.698 1.357 13
8.6370001 -2.9619999 1.6289999 13
5.9180002 -1.9910001 0.61699998 16
6.2870002 -2.1210001 0.75800002 16
6.7129998 -2.273 0.92000002 14
7.2280002 -2.457 1.11 13
7.868 -2.6860001 1.341 14
8.5900002 -2.9460001 1.61 13
5.888 -1.982 0.60699999 16
6.2600002 -2.1129999 0.74800003 16
6.684 -2.2639999 0.90799999 14
7.1929998 -2.4449999 1.097 13
7.816 -2.6670001 1.323 13
8.5290003 -2.9230001 1.5880001 13
5.8590002 -1.972 0.59799999 17
6.2360001 -2.105 0.73799998 16
6.6539998 -2.2520001 0.89700001 14
7.1570001 -2.4300001 1.0829999 13
7.7709999 -2.6489999 1.306 13
8.4729996 -2.9000001 1.568 13
0 6.1440001 0 0
0 0 0 0
0 0 0 0
0 0 0 255
5.8369999 -1.9630001 0.58899999 16
6.1989999 -2.0899999 0.727 16
6.6220002 -2.2390001 0.88499999 15
7.118 -2.4130001 1.069 13
7.717 -2.6259999 1.288 13
8.408 -2.872 1.545 13
5.8299999 -1.9579999 0.58200002 16
6.1810002 -2.0799999 0.71700001 16
6.586 -2.2219999 0.87199998 15
7.0679998 -2.391 1.053 13
7.6789999 -2.6059999 1.272 13
8.3540001 -2.846 1.525 14
5.789 -1.9400001 0.57099998 16
6.1469998 -2.0639999 0.70599997 15
6.553 -2.2049999 0.86000001 14
7.0359998 -2.3740001 1.04 13
7.6339998 -2.5829999 1.255 13
8.2939997 -2.816 1.503 14
5.7639999 -1.926 0.56199998 16
6.1160002 -2.0469999 0.69499999 16
6.5149999 -2.1849999 0.847 15
6.9959998 -2.3510001 1.025 14
7.5799999 -2.5550001 1.237 14
8.2320004 -2.783 1.4809999 14
5.7360001 -1.91 0.55199999 17
6.0900002 -2.0309999 0.685 16
6.487 -2.1670001 0.83499998 16
6.9499998 -2.326 1.0089999 14
7.5289998 -2.526 1.219 13
8.1700001 -2.7479999 1.46 13
5.7080002 -1.893 0.542 17
6.0570002 -2.0109999 0.67400002 15
6.4569998 -2.1459999 0.82300001 15
6.9099998 -2.3010001 0.995 14
7.474 -2.494 1.2 13
8.1049995 -2.711 1.438 13
5.6900001 -1.878 0.53399998 17
6.0300002 -1.9910001 0.66299999 16
6.421 -2.1229999 0.81099999 14
6.8709998 -2.2750001 0.98100001 14
7.4289999 -2.464 1.184 14
8.0500002 -2.677 1.4170001 13
5.6589999 -1.857 0.52399999 17
5.9959998 -1.9680001 0.65200001 15
6.3899999 -2.099 0.79900002 15
6.8319998 -2.247 0.96600002 16
7.3920002 -2.4360001 1.168 14
7.9970002 -2.6400001 1.397 13
5.6409998 -1.839 0.51499999 17
5.974 -1.948 0.64200002 15
6.3540001 -2.073 0.78600001 15
6.7849998 -2.2160001 0.95099998 15
7.3449998 -2.402 1.151 13
7.9380002 -2.5999999 1.376 12
5.618 -1.818 0.50599998 16
5.9419999 -1.923 0.63200003 14
6.323 -2.0469999 0.77499998 14
6.7579999 -2.1900001 0.93900001 13
7.2989998 -2.3670001 1.1339999 14
7.8909998 -2.5639999 1.358 12
5.5869999 -1.795 0.49700001 15
5.9180002 -1.9 0.62099999 14
6.2849998 -2.0179999 0.76200002 14
6.7160001 -2.1570001 0.92400002 14
7.2610002 -2.3340001 1.119 15
7.8400002 -2.5239999 1.339 12
5.5599999 -1.771 0.48800001 16
5.8839998 -1.873 0.611 13
6.2550001 -1.9910001 0.75099999 14
6.6700001 -2.1229999 0.91000003 15
7.2069998 -2.2950001 1.102 14
7.776 -2.4790001 1.318 16
5.539 -1.748 0.479 16
5.868 -1.85 0.602 15
6.2199998 -1.96 0.73900002 15
6.6399999 -2.092 0.898 15
7.1609998 -2.257 1.086 13
7.7199998 -2.4349999 1.298 16
5.5180001 -1.724 0.47099999 16
5.8340001 -1.821 0.59200001 14
6.1890001 -1.9299999 0.72799999 15
6.6079998 -2.0599999 0.88499999 15
7.1170001 -2.2190001 1.0700001 15
7.6669998 -2.391 1.28 16
5.494 -1.698 0.46200001 16
5.7930002 -1.788 0.58099997 17
6.151 -1.896 0.71600002 15
6.5669999 -2.023 0.87199998 15
7.0760002 -2.1800001 1.0549999 15
7.6220002 -2.349 1.263 15
5.4590001 -1.668 0.454 16
5.7870002 -1.765 0.57300001 14
6.1360002 -1.869 0.70700002 16
6.5320001 -1.988 0.85900003 16
7.0339999 -2.1400001 1.041 16
7.5710001 -2.303 1.245 14
0 6.1440001 0 0
0 0 0 0
0 0 0 0
0 0 0 255
5.4349999 -1.64 0.44499999 15
5.7360001 -1.728 0.56199998 17
6.0960002 -1.8329999 0.69599998 15
6.5019999 -1.9529999 0.84799999 15
6.9860001 -2.0969999 1.025 18
7.5219998 -2.257 1.228 14
5.4130001 -1.612 0.43799999 15
5.7150002 -1.699 0.55400002 19
6.0710001 -1.801 0.68599999 15
6.4720001 -1.918 0.83700001 16
6.9530001 -2.0580001 1.012 16
7.4790001 -2.2130001 1.212 14
5.3909998 -1.584 0.43000001 16
5.6830001 -1.665 0.54400003 19
6.039 -1.766 0.676 15
6.4369998 -1.8789999 0.82499999 16
6.9109998 -2.016 0.99900001 15
7.434 -2.1659999 1.196 15
5.3699999 -1.554 0.42300001 16
5.6570001 -1.633 0.53600001 15
5.987 -1.724 0.66299999 17
6.4200001 -1.846 0.81599998 17
6.8730001 -1.973 0.98500001 15
7.3870001 -2.118 1.181 14
5.3530002 -1.525 0.41600001 15
5.6350002 -1.601 0.528 17
5.9899998 -1.698 0.65799999 15
6.3829999 -1.8049999 0.80400002 17
6.8330002 -1.929 0.972 16
7.3499999 -2.072 1.166 15
5.3260002 -1.493 0.40900001 14
5.6160002 -1.569 0.52100003 16
5.9310002 -1.653 0.64499998 17
6.3449998 -1.7640001 0.79299998 16
6.802 -1.887 0.96100003 15
7.3039999 -2.023 1.151 16
5.309 -1.4630001 0.40200001 17
5.5970001 -1.5369999 0.51300001 17
5.9159999 -1.62 0.63800001 16
6.3189998 -1.726 0.78399998 16
6.7709999 -1.845 0.94999999 15
7.2610002 -1.975 1.137 15
5.2789998 -1.429 0.39500001 16
5.5819998 -1.505 0.50700003 17
5.8800001 -1.581 0.62900001 16
6.29 -1.686 0.77399999 16
6.7480001 -1.804 0.94 17
7.2259998 -1.927 1.125 16
5.2659998 -1.399 0.38999999 16
5.5570002 -1.47 0.5 17
5.8670001 -1.546 0.62199998 17
6.2670002 -1.647 0.76499999 16
6.7090001 -1.758 0.92799997 16
7.1810002 -1.877 1.1109999 15
5.256 -1.369 0.38499999 17
5.5339999 -1.4349999 0.493 17
5.8319998 -1.506 0.61299998 16
6.243 -1.607 0.75700003 16
6.6900001 -1.717 0.91900003 17
7.1479998 -1.83 1.099 16
5.2340002 -1.335 0.37900001 18
5.5139999 -1.4 0.48699999 16
5.816 -1.471 0.60699999 17
6.2160001 -1.566 0.74800003 16
6.6550002 -1.671 0.90899998 15
7.125 -1.784 1.09 14
5.2199998 -1.303 0.37400001 17
5.494 -1.365 0.48100001 16
5.8049998 -1.436 0.60100001 17
6.1810002 -1.522 0.73900002 18
6.6339998 -1.628 0.90100002 15
7.092 -1.735 1.0779999 14
5.2049999 -1.27 0.36899999 16
5.4749999 -1.329 0.47499999 16
5.7820001 -1.397 0.59399998 17
6.171 -1.485 0.73299998 15
6.6139998 -1.585 0.89300001 15
7.059 -1.686 1.068 14
5.1890001 -1.2359999 0.36399999 17
5.461 -1.294 0.47 16
5.7620001 -1.359 0.588 16
6.1350002 -1.4400001 0.72500002 17
6.5819998 -1.539 0.884 15
7.0419998 -1.64 1.0599999 15
5.1719999 -1.202 0.36000001 16
5.4429998 -1.258 0.465 16
5.7470002 -1.321 0.58200002 16
6.1139998 -1.399 0.71799999 17
6.553 -1.493 0.875 15
6.994 -1.587 1.048 14
5.158 -1.168 0.35499999 16
5.4289999 -1.222 0.46000001 16
5.73 -1.283 0.57700002 16
6.0840001 -1.355 0.70999998 16
6.539 -1.45 0.86900002 15
6.9809999 -1.541 1.041 15
0 6.1440001 0 0
0 0 0 0
0 0 0 0
0 0 0 255
5.1459999 -1.1339999 0.352 17
5.4190001 -1.187 0.456 16
5.723 -1.247 0.57300001 17
6.0749998 -1.316 0.70599997 17
6.5170002 -1.405 0.86199999 15
6.9559999 -1.492 1.033 14
5.131 -1.1 0.34799999 16
5.3969998 -1.149 0.45100001 15
5.7090001 -1.2079999 0.56800002 17
6.0619998 -1.276 0.70099998 18
6.4990001 -1.36 0.85500002 15
6.9380002 -1.4450001 1.026 14
5.1170001 -1.0650001 0.34400001 18
5.3850002 -1.113 0.44800001 17
5.677 -1.166 0.56199998 15
6.0450001 -1.234 0.69499999 17
6.4660001 -1.312 0.84799999 14
6.915 -1.396 1.018 14
5.105 -1.03 0.34099999 17
5.381 -1.0779999 0.44400001 15
5.6820002 -1.131 0.56 17
6.0110002 -1.189 0.68800002 16
6.4039998 -1.258 0.83600003 17
6.9000001 -1.348 1.012 14
5.098 -0.99599999 0.338 17
5.368 -1.041 0.44100001 16
5.651 -1.0880001 0.55400002 16
6.0419998 -1.155 0.68900001 15
6.4369998 -1.222 0.83700001 14
6.8829999 -1.299 1.006 13
5.0770001 -0.958 0.33500001 19
5.342 -1 0.43700001 15
5.6440001 -1.049 0.551 16
5.9889998 -1.105 0.68000001 15
6.415 -1.175 0.83099997 14
6.875 -1.252 1.002 14
5.073 -0.92400002 0.333 17
5.3379998 -0.96399999 0.43399999 16
5.6430001 -1.011 0.54799998 17
5.9720001 -1.062 0.67500001 16
6.415 -1.133 0.82800001 14
6.8369999 -1.199 0.99299997 14
5.0630002 -0.88800001 0.33000001 17
5.335 -0.92799997 0.43200001 18
5.6259999 -0.97100002 0.54500002 16
5.9499998 -1.018 0.671 16
0 0 0 0
6.8189998 -1.15 0.98799998 13
5.0599999 -0.85399997 0.32800001 17
5.323 -0.88999999 0.42899999 15
5.6170001 -0.93099999 0.542 16
5.9349999 -0.97500002 0.667 15
6.375 -1.039 0.81800002 14
6.8049998 -1.1 0.98299998 14
5.0489998 -0.81699997 0.32600001 16
5.3119998 -0.852 0.42699999 15
5.598 -0.889 0.53799999 16
5.927 -0.93300003 0.66399997 15
6.375 -0.995 0.81599998 15
6.79 -1.051 0.97799999 14
5.0359998 -0.77999997 0.324 17
5.3109999 -0.81400001 0.42500001 15
5.592 -0.84899998 0.53600001 16
5.9190001 -0.88999999 0.66100001 16
6.3429999 -0.94499999 0.81 14
6.7550001 -0.99699998 0.97100002 16
5.0250001 -0.74199998 0.322 18
5.303 -0.77499998 0.42300001 15
5.5799999 -0.80800003 0.53299999 16
5.9120002 -0.847 0.65899998 16
6.3249998 -0.898 0.80599999 16
6.7639999 -0.95099998 0.97000003 15
5.0279999 -0.708 0.32100001 16
5.2870002 -0.736 0.41999999 16
5.5780001 -0.76800001 0.53200001 16
5.9050002 -0.80400002 0.65600002 17
6.3130002 -0.85100001 0.80199999 17
6.75 -0.90100002 0.96600002 14
5.0149999 -0.67000002 0.31900001 14
5.2839999 -0.69800001 0.419 14
5.573 -0.72799999 0.52999997 15
5.8940001 -0.76099998 0.65399998 15
6.296 -0.80400002 0.79900002 16
6.737 -0.85100001 0.963 13
5.013 -0.634 0.31799999 15
5.2810001 -0.65899998 0.41800001 15
5.5599999 -0.68599999 0.528 15
5.8920002 -0.71799999 0.65200001 15
6.2859998 -0.75700003 0.796 16
6.724 -0.80000001 0.95899999 14
4.9990001 -0.59600002 0.31600001 15
5.2779999 -0.62099999 0.417 15
5.5560002 -0.64499998 0.52600002 15
5.8850002 -0.67400002 0.64999998 15
6.2740002 -0.70999998 0.79299998 15
6.7059999 -0.74900001 0.95499998 14
0 6.1440001 0 0
0 0 0 0
0 0 0 0
0 0 0 255
4.9980001 -0.55900002 0.31600001 15
5.2709999 -0.58099997 0.41499999 15
5.5440001 -0.60299999 0.52399999 15
5.8790002 -0.63 0.64899999 16
6.2670002 -0.66299999 0.79100001 16
6.7030001 -0.699 0.95300001 20
4.993 -0.52200001 0.315 16
5.263 -0.54100001 0.414 15
5.5339999 -0.56099999 0.52200001 15
5.868 -0.58600003 0.64600003 16
6.25 -0.61500001 0.78799999 15
6.658 -0.64499998 0.94499999 32
4.9829998 -0.484 0.31299999 17
5.2550001 -0.50199997 0.41299999 14
5.5339999 -0.51999998 0.52100003 15
5.8509998 -0.54000002 0.64399999 15
6.243 -0.56699997 0.78600001 15
6.6570001 -0.59500003 0.94499999 34
4.9829998 -0.44600001 0.31299999 16
5.2480001 -0.46200001 0.41100001 14
5.5240002 -0.477 0.51999998 16
5.8460002 -0.49700001 0.64200002 15
6.2519999 -0.52200001 0.78600001 19
6.6459999 -0.54500002 0.94199997 31
4.9780002 -0.40900001 0.31200001 16
5.2410002 -0.42199999 0.41 15
5.5229998 -0.43599999 0.51899999 14
5.8400002 -0.45199999 0.64099997 15
6.2210002 -0.47299999 0.78200001 36
6.6360002 -0.49399999 0.93900001 17
4.9650002 -0.37 0.31099999 17
5.2389998 -0.382 0.41 16
5.507 -0.39399999 0.51700002 15
5.8369999 -0.40799999 0.63999999 15
6.2119999 -0.42500001 0.77999997 36
6.6329999 -0.44400001 0.93800002 16
