# .PCD v0.7 - Point Cloud Data file format
VERSION 0.7
FIELDS x y z intensity
SIZE 4 4 4 4
TYPE F F F F
COUNT 1 1 1 1
WIDTH 1587
HEIGHT 1
VIEWPOINT 0 0 0 1 0 0 0
POINTS 1587
DATA ascii
2.622 1.499 -0.53299999 14
2.697 1.5369999 -0.49900001 15
2.7909999 1.587 -0.465 18
2.8840001 1.636 -0.42899999 18
2.4719999 1.4069999 -0.59299999 21
2.546 1.443 -0.56199998 16
2.628 1.485 -0.53200001 16
2.707 1.524 -0.498 14
2.7969999 1.571 -0.463 17
2.8900001 1.6210001 -0.42699999 20
2.474 1.391 -0.58999997 17
2.553 1.429 -0.56099999 17
2.6329999 1.469 -0.52999997 14
2.7119999 1.508 -0.49599999 15
2.8 1.554 -0.461 19
2.891 1.601 -0.42399999 23
2.484 1.3789999 -0.58899999 18
2.5580001 1.414 -0.55900002 16
2.6370001 1.452 -0.528 15
2.7149999 1.4910001 -0.49399999 15
2.8069999 1.538 -0.46000001 21
2.9030001 1.587 -0.42399999 19
2.487 1.362 -0.58700001 18
2.5599999 1.396 -0.55699998 14
2.6429999 1.437 -0.52600002 17
2.7219999 1.475 -0.49200001 17
2.813 1.52 -0.458 19
2.9070001 1.568 -0.42199999 20
2.4920001 1.346 -0.58600003 19
2.569 1.382 -0.55599999 14
2.652 1.421 -0.52499998 17
2.721 1.454 -0.49000001 17
2.8169999 1.502 -0.456 19
2.9089999 1.548 -0.41999999 20
0 6.1440001 0 0
0 0 0 0
0 0 0 0
0 0 0 255
2.4920001 1.327 -0.583 18
2.575 1.3660001 -0.55500001 15
2.654 1.403 -0.523 17
2.73 1.438 -0.48899999 15
2.8269999 1.4859999 -0.456 18
2.914 1.529 -0.41800001 21
2.506 1.3150001 -0.58399999 19
2.579 1.348 -0.55299997 16
2.655 1.382 -0.52100003 16
2.737 1.421 -0.48800001 16
2.829 1.465 -0.454 18
2.9200001 1.5089999 -0.417 21
2.5079999 1.296 -0.58200002 16
2.585 1.33 -0.55199999 17
2.6659999 1.367 -0.52100003 15
2.743 1.403 -0.48699999 19
2.832 1.444 -0.45199999 19
2.931 1.492 -0.417 23
2.5090001 1.277 -0.57999998 16
2.5880001 1.311 -0.55000001 14
2.6659999 1.346 -0.51899999 15
2.744 1.381 -0.48500001 15
2.8369999 1.424 -0.45100001 17
2.9319999 1.469 -0.41499999 20
2.5120001 1.258 -0.57800001 18
2.596 1.294 -0.55000001 17
2.675 1.329 -0.51800001 15
2.7479999 1.3609999 -0.48300001 18
2.8440001 1.405 -0.44999999 18
2.9319999 1.4450001 -0.41299999 20
2.516 1.239 -0.57700002 17
2.599 1.274 -0.54799998 16
2.678 1.308 -0.51700002 15
2.7539999 1.341 -0.48300001 16
2.8429999 1.381 -0.44800001 16
2.938 1.424 -0.412 21
2.517 1.2180001 -0.57499999 34
2.6070001 1.256 -0.54799998 15
2.678 1.286 -0.51499999 15
2.7579999 1.3200001 -0.48100001 17
2.846 1.358 -0.447 19
2.9449999 1.403 -0.412 22
2.5220001 1.199 -0.574 55
2.6059999 1.233 -0.546 16
2.684 1.265 -0.514 17
2.76 1.2970001 -0.47999999 17
2.8429999 1.3329999 -0.44499999 19
2.951 1.38 -0.41100001 21
2.517 1.174 -0.57099998 51
2.6110001 1.2130001 -0.54500002 15
2.691 1.2460001 -0.514 17
2.763 1.275 -0.479 15
2.8529999 1.313 -0.44499999 16
2.9460001 1.353 -0.40900001 20
2.5250001 1.1569999 -0.57099998 52
2.612 1.192 -0.54400003 22
2.694 1.224 -0.51300001 16
2.7720001 1.255 -0.479 15
2.8559999 1.29 -0.44400001 18
2.95 1.329 -0.40799999 21
2.53 1.137 -0.56999999 49
2.6110001 1.168 -0.542 53
2.697 1.202 -0.51200002 17
2.777 1.234 -0.479 16
2.862 1.268 -0.44400001 19
2.9549999 1.306 -0.40799999 20
2.536 1.118 -0.56999999 53
2.6159999 1.148 -0.54100001 53
2.697 1.179 -0.50999999 16
2.7780001 1.21 -0.477 16
2.865 1.245 -0.44299999 16
2.961 1.283 -0.40799999 22
2.5409999 1.097 -0.56900001 52
2.615 1.124 -0.54000002 53
2.701 1.1569999 -0.50999999 19
2.7809999 1.187 -0.477 18
2.8629999 1.2180001 -0.442 18
2.9530001 1.2539999 -0.40599999 22
2.5439999 1.076 -0.56900001 52
2.6199999 1.103 -0.53899997 49
2.701 1.133 -0.509 52
2.7839999 1.164 -0.47600001 16
2.8629999 1.193 -0.44100001 17
2.964 1.232 -0.40599999 19
2.546 1.054 -0.56800002 50
2.6199999 1.08 -0.53799999 51
2.7049999 1.1109999 -0.50800002 53
2.7850001 1.1390001 -0.47499999 16
2.872 1.171 -0.44100001 19
2.9649999 1.206 -0.40599999 20
2.5650001 1.039 -0.56999999 22
2.6259999 1.059 -0.53799999 51
2.7079999 1.087 -0.50800002 55
2.7869999 1.115 -0.47499999 22
2.878 1.148 -0.442 20
2.9649999 1.1799999 -0.405 20
0 6.1440001 0 0
0 0 0 0
0 0 0 0
0 0 0 255
2.5580001 1.013 -0.56800002 19
2.632 1.038 -0.53799999 47
2.711 1.064 -0.50800002 53
2.793 1.0930001 -0.47499999 51
2.8789999 1.123 -0.44100001 22
2.9690001 1.155 -0.405 21
2.5569999 0.99000001 -0.56599998 19
2.638 1.016 -0.53799999 43
2.7149999 1.0420001 -0.50800002 51
2.7969999 1.069 -0.47499999 57
2.8800001 1.097 -0.44100001 18
2.971 1.1289999 -0.405 21
2.563 0.96899998 -0.56699997 19
2.6370001 0.99199998 -0.537 15
2.7149999 1.017 -0.50700003 52
2.8010001 1.046 -0.47499999 54
2.878 1.071 -0.44 25
2.9719999 1.103 -0.405 23
2.562 0.94599998 -0.56599998 16
2.6440001 0.97100002 -0.53799999 22
2.714 0.99199998 -0.50599998 52
2.7980001 1.0190001 -0.47400001 50
2.8900001 1.049 -0.44100001 54
2.973 1.076 -0.405 22
2.566 0.92400002 -0.56599998 18
2.641 0.94599998 -0.537 14
2.721 0.97100002 -0.50700003 27
2.803 0.99599999 -0.47499999 48
2.885 1.022 -0.44 48
2.977 1.051 -0.405 22
2.5669999 0.90100002 -0.565 15
2.6459999 0.92500001 -0.537 14
2.7219999 0.94700003 -0.50599998 16
2.8039999 0.97100002 -0.47400001 47
2.8940001 0.99900001 -0.44100001 50
2.9779999 1.025 -0.405 46
2.5680001 0.87800002 -0.565 17
2.6470001 0.90100002 -0.537 13
2.73 0.92400002 -0.50700003 15
2.806 0.94700003 -0.47400001 42
2.8900001 0.97100002 -0.44100001 49
2.983 1 -0.40599999 55
2.5710001 0.85600001 -0.565 16
2.6500001 0.87800002 -0.537 14
2.7260001 0.89899999 -0.50599998 14
2.8050001 0.921 -0.47400001 16
2.8959999 0.94700003 -0.44100001 49
2.98 0.972 -0.405 58
2.5710001 0.833 -0.56400001 16
2.652 0.85399997 -0.537 14
2.733 0.87599999 -0.50700003 13
2.806 0.89600003 -0.47400001 18
2.8970001 0.92199999 -0.442 45
2.983 0.94499999 -0.40599999 56
2.5710001 0.80900002 -0.56400001 16
2.652 0.82999998 -0.537 14
2.7279999 0.85000002 -0.50599998 13
2.809 0.87099999 -0.47400001 13
2.895 0.89499998 -0.44100001 25
2.987 0.91900003 -0.40599999 58
2.5780001 0.78799999 -0.565 14
2.6570001 0.80800003 -0.537 15
2.734 0.82700002 -0.50700003 13
2.806 0.84500003 -0.47400001 15
2.892 0.86699998 -0.44100001 19
2.9860001 0.89200002 -0.40700001 58
2.5829999 0.76599997 -0.56599998 18
2.6559999 0.78399998 -0.537 15
2.7349999 0.80299997 -0.50700003 12
2.809 0.82099998 -0.47400001 14
2.898 0.84299999 -0.442 17
2.9909999 0.86699998 -0.40700001 44
2.582 0.74299997 -0.565 18
2.664 0.76200002 -0.53799999 14
2.734 0.778 -0.50700003 13
2.8139999 0.79699999 -0.47499999 14
2.8970001 0.81699997 -0.442 16
2.984 0.838 -0.40700001 22
2.5829999 0.71899998 -0.565 15
2.6619999 0.73699999 -0.53799999 14
2.734 0.75300002 -0.50700003 14
2.813 0.77100003 -0.47499999 13
2.8970001 0.79000002 -0.442 17
2.9820001 0.81 -0.40700001 22
2.589 0.69700003 -0.56599998 15
2.6630001 0.713 -0.53799999 15
2.7349999 0.72799999 -0.50700003 13
2.813 0.745 -0.47499999 14
2.9000001 0.76499999 -0.44299999 17
2.984 0.78399998 -0.40799999 19
2.589 0.67400002 -0.56599998 15
2.658 0.68800002 -0.537 14
2.7379999 0.70499998 -0.50800002 12
2.8150001 0.72100002 -0.47600001 14
2.898 0.73799998 -0.44299999 16
2.9890001 0.75800002 -0.40900001 22
0 6.1440001 0 0
0 0 0 0
0 0 0 0
0 0 0 255
2.585 0.64999998 -0.565 14
2.6619999 0.66500002 -0.53799999 13
2.74 0.68099999 -0.50800002 14
2.816 0.69599998 -0.47600001 14
2.901 0.713 -0.44299999 19
2.9890001 0.73100001 -0.40900001 24
2.5910001 0.62800002 -0.56599998 15
2.665 0.64200002 -0.53799999 13
2.7379999 0.65600002 -0.50800002 13
2.8150001 0.67000002 -0.47600001 15
2.902 0.68699998 -0.44400001 16
2.9879999 0.704 -0.40900001 21
2.5910001 0.60500002 -0.56599998 15
2.668 0.61900002 -0.53899997 13
2.743 0.63200003 -0.509 14
2.816 0.64499998 -0.477 14
2.9070001 0.662 -0.44499999 18
2.9890001 0.67699999 -0.41 21
2.596 0.583 -0.56699997 16
2.6689999 0.59500003 -0.53899997 13
2.747 0.60799998 -0.50999999 13
2.8180001 0.62 -0.477 15
2.905 0.63499999 -0.44499999 16
2.9920001 0.65100002 -0.41100001 22
2.595 0.55900002 -0.56699997 14
2.671 0.57099998 -0.54000002 13
2.7460001 0.583 -0.50999999 13
2.822 0.59500003 -0.47799999 13
2.8959999 0.60699999 -0.44400001 17
2.993 0.62400001 -0.41100001 22
2.598 0.537 -0.56800002 15
2.671 0.54699999 -0.54000002 14
2.7449999 0.55800003 -0.50999999 11
2.8210001 0.56999999 -0.47799999 12
2.902 0.583 -0.44499999 17
2.9960001 0.59799999 -0.412 21
2.5910001 0.51200002 -0.56699997 15
2.668 0.523 -0.53899997 14
2.7460001 0.53399998 -0.50999999 12
2.8199999 0.54400003 -0.47799999 12
2.9089999 0.55800003 -0.447 15
2.9920001 0.56999999 -0.412 20
2.5940001 0.48899999 -0.56699997 14
2.6670001 0.49900001 -0.53899997 13
2.7479999 0.50999999 -0.51099998 10
2.822 0.51999998 -0.479 13
2.9070001 0.53200001 -0.447 18
2.9960001 0.54400003 -0.41299999 21
2.5940001 0.46599999 -0.56699997 14
2.674 0.47600001 -0.54100001 14
2.743 0.484 -0.50999999 11
2.822 0.49399999 -0.479 12
2.905 0.505 -0.447 14
2.9949999 0.51700002 -0.414 21
2.592 0.44299999 -0.56699997 13
2.6670001 0.45100001 -0.54000002 12
2.744 0.461 -0.51099998 13
2.8239999 0.47 -0.47999999 13
2.9059999 0.47999999 -0.44800001 17
2.9909999 0.49000001 -0.414 20
2.592 0.41999999 -0.56699997 13
2.671 0.428 -0.54100001 13
2.7479999 0.43700001 -0.51200002 12
2.822 0.44400001 -0.47999999 12
2.905 0.45300001 -0.44800001 14
2.994 0.46399999 -0.41499999 22
2.5899999 0.396 -0.56699997 14
2.6670001 0.40400001 -0.54000002 14
2.7449999 0.412 -0.51099998 12
2.8239999 0.41999999 -0.48100001 12
2.9030001 0.42699999 -0.44800001 14
2.9949999 0.43700001 -0.41499999 22
2.595 0.37400001 -0.56800002 14
2.665 0.38 -0.54000002 11
2.7449999 0.38699999 -0.51200002 10
2.8280001 0.39500001 -0.48199999 12
2.908 0.403 -0.449 16
2.997 0.41100001 -0.41600001 20
2.5929999 0.35100001 -0.56800002 15
2.668 0.35699999 -0.54100001 13
2.7349999 0.36199999 -0.50999999 13
2.8269999 0.37 -0.48199999 12
2.9119999 0.377 -0.44999999 15
2.9909999 0.384 -0.41600001 19
2.5910001 0.32800001 -0.56800002 20
2.6659999 0.333 -0.54000002 14
2.74 0.338 -0.51099998 15
2.8210001 0.34400001 -0.48100001 11
2.905 0.35100001 -0.44999999 15
2.994 0.35699999 -0.41600001 21
2.576 0.303 -0.56400001 18
2.652 0.308 -0.53799999 17
2.74 0.31400001 -0.51200002 15
2.819 0.31900001 -0.48100001 16
2.902 0.324 -0.449 14
2.9949999 0.331 -0.417 23
0 6.1440001 0 0
0 0 0 0
0 0 0 0
0 0 0 255
0 0 0 0
2.648 0.28400001 -0.537 16
2.724 0.28799999 -0.509 11
2.799 0.292 -0.47799999 14
2.8989999 0.29800001 -0.449 19
2.984 0.303 -0.41600001 27
2.5899999 0.259 -0.56800002 16
2.6619999 0.26199999 -0.54000002 14
2.7420001 0.266 -0.51200002 14
2.8069999 0.26800001 -0.47999999 10
2.8789999 0.271 -0.447 17
2.9779999 0.27599999 -0.41499999 33
2.5969999 0.236 -0.56999999 15
2.6730001 0.23899999 -0.54299998 14
2.75 0.242 -0.514 10
2.825 0.245 -0.48300001 13
2.9100001 0.248 -0.45199999 15
2.9760001 0.25 -0.41600001 41
2.6029999 0.214 -0.57099998 13
2.6700001 0.21600001 -0.542 10
2.747 0.21799999 -0.514 10
2.826 0.22 -0.484 13
2.9070001 0.222 -0.45199999 17
2.9949999 0.22499999 -0.419 21
2.5969999 0.191 -0.56999999 12
2.674 0.193 -0.54299998 12
2.7490001 0.19400001 -0.514 11
2.829 0.19599999 -0.484 11
2.9119999 0.197 -0.45300001 14
2.993 0.198 -0.419 18
2.598 0.168 -0.56999999 14
2.675 0.169 -0.54400003 11
2.7509999 0.17 -0.51499999 11
2.8299999 0.171 -0.48500001 11
2.9130001 0.17200001 -0.45300001 13
2.9990001 0.17200001 -0.41999999 18
2.605 0.146 -0.57200003 13
2.675 0.146 -0.54400003 11
2.7479999 0.145 -0.51499999 10
2.835 0.146 -0.486 10
2.9130001 0.146 -0.45300001 14
3.0050001 0.146 -0.421 17
2.6010001 0.123 -0.57099998 12
2.681 0.123 -0.54500002 12
2.757 0.122 -0.51599997 12
2.829 0.121 -0.48500001 13
2.914 0.12 -0.454 12
3.0009999 0.12 -0.421 18
2.6059999 0.1 -0.57300001 12
2.6830001 0.098999999 -0.546 10
2.757 0.097999997 -0.51700002 11
2.836 0.096000001 -0.48699999 11
2.9219999 0.094999999 -0.45500001 13
3.0079999 0.093000002 -0.42199999 22
2.6070001 0.077 -0.57300001 13
2.6789999 0.075000003 -0.54500002 13
2.7609999 0.074000001 -0.51800001 10
2.8399999 0.071000002 -0.48699999 12
2.918 0.068999998 -0.45500001 14
3.013 0.067000002 -0.42300001 19
2.609 0.054000001 -0.57300001 14
2.677 0.052000001 -0.54500002 9
2.7620001 0.048999999 -0.51800001 10
2.8410001 0.046999998 -0.48800001 12
2.921 0.043000001 -0.45500001 14
3.003 0.039999999 -0.421 16
2.6059999 0.030999999 -0.57300001 12
2.6819999 0.028000001 -0.546 9
2.7620001 0.025 -0.51800001 9
2.832 0.022 -0.486 11
2.9260001 0.017999999 -0.456 14
3.0050001 0.014 -0.42199999 18
2.6140001 0.0089999996 -0.57499999 11
2.6919999 0.0049999999 -0.54799998 12
2.7620001 0.001 -0.51800001 10
2.8429999 -0.0020000001 -0.48800001 11
2.9200001 -0.0060000001 -0.456 14
3.0090001 -0.011 -0.42300001 22
2.608 -0.013 -0.574 12
2.6889999 -0.017000001 -0.54799998 10
2.7620001 -0.022 -0.51800001 10
2.839 -0.027000001 -0.48800001 11
2.9300001 -0.032000002 -0.45699999 14
3.01 -0.037 -0.42300001 18
2.618 -0.035999998 -0.57599998 13
2.6889999 -0.041000001 -0.54799998 12
2.7639999 -0.046 -0.51899999 9
2.8399999 -0.050999999 -0.48800001 12
2.925 -0.057 -0.45699999 17
3.0179999 -0.064000003 -0.42399999 21
2.6099999 -0.057999998 -0.574 12
2.688 -0.064000003 -0.54799998 11
2.7609999 -0.07 -0.51899999 12
2.8440001 -0.075999998 -0.48899999 10
2.9219999 -0.082999997 -0.456 13
3.013 -0.090000004 -0.42399999 17
0 6.1440001 0 0
0 0 0 0
0 0 0 0
0 0 0 255
2.6170001 -0.081 -0.57599998 12
2.694 -0.088 -0.54900002 11
2.7650001 -0.093999997 -0.51899999 11
2.8469999 -0.101 -0.48899999 11
2.928 -0.108 -0.45699999 12
3.013 -0.116 -0.42399999 15
2.6159999 -0.104 -0.57599998 15
2.691 -0.111 -0.54900002 11
2.766 -0.118 -0.51999998 11
2.8499999 -0.126 -0.49000001 12
2.9260001 -0.134 -0.45699999 15
3.0179999 -0.14300001 -0.42399999 18
2.609 -0.126 -0.57499999 14
2.6919999 -0.134 -0.54900002 11
2.767 -0.142 -0.51999998 9
2.8440001 -0.15000001 -0.48899999 12
2.9260001 -0.15899999 -0.45699999 13
3.02 -0.169 -0.42500001 17
2.6159999 -0.149 -0.57599998 14
2.6900001 -0.15800001 -0.54900002 12
2.7709999 -0.167 -0.52100003 10
2.848 -0.176 -0.49000001 12
2.924 -0.185 -0.45699999 16
3.023 -0.19599999 -0.42500001 18
2.6159999 -0.17200001 -0.57599998 15
2.694 -0.18099999 -0.55000001 11
2.7679999 -0.19 -0.51999998 9
2.846 -0.2 -0.49000001 13
2.9360001 -0.211 -0.45899999 15
3.0220001 -0.222 -0.42500001 20
2.6170001 -0.19499999 -0.57700002 15
2.694 -0.205 -0.55000001 12
2.7709999 -0.215 -0.52100003 11
2.852 -0.22499999 -0.491 12
2.9300001 -0.236 -0.458 15
3.0220001 -0.248 -0.42500001 21
2.612 -0.21699999 -0.57599998 14
2.6949999 -0.228 -0.55000001 12
2.776 -0.23899999 -0.52200001 11
2.848 -0.25 -0.49000001 12
2.9319999 -0.26199999 -0.458 15
3.0179999 -0.27399999 -0.42399999 21
2.6170001 -0.241 -0.57700002 16
2.694 -0.25099999 -0.55000001 11
2.7739999 -0.26300001 -0.52200001 11
2.8499999 -0.27500001 -0.491 12
2.927 -0.28600001 -0.45699999 19
3.007 -0.29899999 -0.42300001 33
2.6140001 -0.26300001 -0.57599998 13
2.6900001 -0.27399999 -0.54900002 12
2.7639999 -0.28600001 -0.51999998 11
2.839 -0.29800001 -0.48899999 20
2.914 -0.31 -0.45500001 23
3.0050001 -0.32499999 -0.42300001 33
2.608 -0.285 -0.57499999 21
2.687 -0.29699999 -0.54900002 19
2.7579999 -0.30899999 -0.51899999 12
2.8280001 -0.32100001 -0.48699999 18
2.9170001 -0.336 -0.456 18
3.0150001 -0.352 -0.42399999 34
0 0 0 0
0 0 0 0
2.7579999 -0.333 -0.51899999 18
2.8499999 -0.34799999 -0.49000001 17
2.9330001 -0.36300001 -0.458 17
3.03 -0.38 -0.426 23
0 0 0 0
2.6819999 -0.34299999 -0.54799998 20
2.77 -0.35800001 -0.52100003 13
2.8499999 -0.373 -0.491 15
2.9389999 -0.389 -0.45899999 17
3.0339999 -0.40599999 -0.426 23
2.618 -0.354 -0.57800001 18
2.698 -0.368 -0.55199999 17
2.777 -0.38299999 -0.523 14
2.8510001 -0.39700001 -0.491 14
2.9430001 -0.41499999 -0.46000001 20
3.0369999 -0.433 -0.42699999 21
2.6229999 -0.377 -0.579 17
2.7019999 -0.39199999 -0.55299997 16
2.7739999 -0.40599999 -0.52200001 14
2.8499999 -0.42199999 -0.491 14
2.941 -0.44 -0.46000001 17
3.033 -0.45899999 -0.426 26
2.622 -0.39899999 -0.579 17
2.698 -0.41499999 -0.55199999 16
2.779 -0.43099999 -0.523 14
2.8540001 -0.447 -0.49200001 16
2.9449999 -0.46599999 -0.46000001 20
3.039 -0.486 -0.42699999 23
2.6229999 -0.42199999 -0.57999998 16
2.707 -0.43900001 -0.55400002 14
2.7820001 -0.456 -0.52399999 15
2.8570001 -0.472 -0.49200001 14
2.95 -0.49200001 -0.461 20
3.039 -0.51200002 -0.42699999 24
0 6.1440001 0 0
0 0 0 0
0 0 0 0
0 0 0 255
2.628 -0.44600001 -0.58099997 14
2.711 -0.46399999 -0.55500001 13
2.7839999 -0.47999999 -0.52499998 15
2.8540001 -0.49599999 -0.49200001 16
2.9449999 -0.51700002 -0.461 24
3.0469999 -0.54000002 -0.428 27
2.6259999 -0.46799999 -0.58099997 13
2.7130001 -0.48699999 -0.55599999 14
2.7869999 -0.50400001 -0.52600002 14
2.8570001 -0.52100003 -0.493 14
2.951 -0.54299998 -0.46200001 17
3.043 -0.565 -0.428 23
2.6289999 -0.491 -0.58200002 15
2.71 -0.50999999 -0.55599999 15
2.786 -0.528 -0.52600002 14
2.8610001 -0.54699999 -0.49399999 13
2.954 -0.56900001 -0.46200001 18
3.0469999 -0.59200001 -0.428 21
2.6289999 -0.514 -0.583 14
2.7079999 -0.53299999 -0.55599999 13
2.7909999 -0.55299997 -0.52700001 13
2.8659999 -0.57200003 -0.495 16
2.961 -0.59600002 -0.463 16
3.0469999 -0.61799997 -0.42899999 22
2.6329999 -0.537 -0.58399999 16
2.7090001 -0.55599999 -0.55599999 14
2.79 -0.57700002 -0.52700001 12
2.8659999 -0.597 -0.495 16
2.9619999 -0.62099999 -0.46399999 16
3.0510001 -0.64499998 -0.42899999 23
2.632 -0.55900002 -0.58399999 17
2.714 -0.57999998 -0.55800003 16
2.796 -0.602 -0.52899998 12
2.868 -0.62199998 -0.49599999 14
2.9630001 -0.64700001 -0.46399999 16
3.0469999 -0.67000002 -0.42899999 22
2.6329999 -0.58200002 -0.58499998 13
2.714 -0.60299999 -0.55800003 13
2.7920001 -0.625 -0.528 11
2.8699999 -0.64600003 -0.49599999 18
2.9649999 -0.67199999 -0.465 17
3.05 -0.69700003 -0.43000001 21
2.6370001 -0.60500002 -0.58700001 13
2.7119999 -0.62599999 -0.55800003 14
2.793 -0.64899999 -0.52899998 13
2.872 -0.67199999 -0.49700001 14
2.9579999 -0.69599998 -0.46399999 20
3.049 -0.72299999 -0.43000001 20
2.6289999 -0.62599999 -0.58600003 14
2.717 -0.65100002 -0.56 13
2.7980001 -0.67400002 -0.52999997 15
2.8770001 -0.69700003 -0.49900001 13
2.96 -0.722 -0.465 16
3.0469999 -0.74900001 -0.43000001 19
2.6400001 -0.65200001 -0.58899999 16
2.7149999 -0.67299998 -0.56 14
2.799 -0.69800001 -0.53100002 13
2.8740001 -0.72100002 -0.498 21
2.961 -0.74699998 -0.46599999 16
3.053 -0.77600002 -0.43099999 22
2.6389999 -0.67400002 -0.58899999 16
2.7160001 -0.69700003 -0.56099999 14
2.7969999 -0.72100002 -0.53200001 12
2.8770001 -0.74599999 -0.5 14
2.964 -0.773 -0.46700001 18
3.056 -0.80299997 -0.43200001 21
2.6400001 -0.69599998 -0.58999997 17
2.721 -0.72100002 -0.56300002 13
2.7969999 -0.745 -0.53200001 12
2.8770001 -0.76999998 -0.5 15
2.9649999 -0.79900002 -0.46799999 19
3.059 -0.829 -0.433 21
2.645 -0.72000003 -0.59200001 17
2.7160001 -0.74199998 -0.56300002 13
2.803 -0.76999998 -0.53399998 13
2.878 -0.79500002 -0.50099999 16
2.964 -0.82300001 -0.46799999 19
3.053 -0.85299999 -0.433 22
2.642 -0.741 -0.59299999 14
2.714 -0.76499999 -0.56300002 12
2.8010001 -0.79299998 -0.53500003 16
2.875 -0.81800002 -0.50199997 15
2.9679999 -0.84899998 -0.46900001 18
3.0639999 -0.88200003 -0.435 21
2.6340001 -0.76099998 -0.59200001 16
2.717 -0.78899997 -0.565 14
2.802 -0.81699997 -0.53600001 13
2.8770001 -0.84200001 -0.50300002 14
2.967 -0.87300003 -0.47 18
3.063 -0.90700001 -0.43599999 23
2.6400001 -0.78500003 -0.59399998 18
2.7190001 -0.81199998 -0.56599998 15
2.7980001 -0.83899999 -0.53600001 15
2.875 -0.866 -0.50300002 14
2.9590001 -0.89600003 -0.47 16
3.063 -0.93199998 -0.43700001 27
0 6.1440001 0 0
0 0 0 0
0 0 0 0
0 0 0 255
2.6359999 -0.80599999 -0.59500003 16
2.7149999 -0.833 -0.56699997 15
2.7980001 -0.86199999 -0.537 13
2.8710001 -0.88800001 -0.50400001 16
2.967 -0.92199999 -0.472 16
3.062 -0.95700002 -0.43700001 23
2.638 -0.82800001 -0.597 18
2.721 -0.85699999 -0.56900001 17
2.7980001 -0.88499999 -0.53899997 15
2.8759999 -0.91299999 -0.50599998 14
2.964 -0.94599998 -0.47299999 16
3.063 -0.98199999 -0.43799999 23
2.6359999 -0.84899998 -0.59799999 18
2.7090001 -0.87599999 -0.56800002 16
2.7950001 -0.90700001 -0.53899997 16
2.8759999 -0.93699998 -0.50700003 16
2.9649999 -0.97000003 -0.47400001 16
3.063 -1.007 -0.44 24
2.6329999 -0.87 -0.59899998 19
2.7149999 -0.89999998 -0.57099998 14
2.796 -0.93000001 -0.54100001 14
2.878 -0.96100003 -0.509 14
2.9649999 -0.995 -0.47499999 17
3.066 -1.033 -0.44100001 23
2.6340001 -0.89200002 -0.60000002 19
2.7119999 -0.921 -0.57200003 16
2.7950001 -0.95200002 -0.542 14
2.875 -0.98299998 -0.50999999 15
2.964 -1.018 -0.47600001 15
3.063 -1.057 -0.442 23
2.6300001 -0.912 -0.60100001 19
2.711 -0.94300002 -0.57300001 18
2.7920001 -0.97399998 -0.54299998 14
2.8740001 -1.006 -0.51099998 16
2.9590001 -1.04 -0.477 17
3.0610001 -1.081 -0.44299999 21
2.6289999 -0.93300003 -0.60299999 17
2.71 -0.96399999 -0.57499999 15
2.793 -0.99599999 -0.54500002 15
2.872 -1.028 -0.51200002 18
2.967 -1.066 -0.47999999 18
3.0650001 -1.1059999 -0.44499999 21
2.628 -0.954 -0.60399997 17
2.7090001 -0.98500001 -0.57599998 14
2.7920001 -1.0190001 -0.54699999 14
2.8729999 -1.051 -0.514 15
2.9690001 -1.091 -0.48199999 16
3.0639999 -1.13 -0.447 22
2.6289999 -0.97500002 -0.60600001 17
2.7090001 -1.007 -0.57800001 17
2.7880001 -1.039 -0.54799998 18
2.8740001 -1.074 -0.51599997 17
2.9630001 -1.112 -0.48300001 16
3.0639999 -1.154 -0.449 26
2.6240001 -0.99400002 -0.60699999 17
2.7060001 -1.027 -0.57999998 17
2.7920001 -1.062 -0.55000001 15
2.8729999 -1.096 -0.51800001 17
2.9660001 -1.136 -0.48500001 19
3.0610001 -1.176 -0.44999999 22
2.622 -1.013 -0.60900003 17
2.707 -1.048 -0.58200002 17
2.786 -1.081 -0.551 17
2.8629999 -1.114 -0.51800001 16
2.9630001 -1.1569999 -0.48699999 18
3.052 -1.196 -0.45100001 19
2.6199999 -1.033 -0.611 17
2.7 -1.066 -0.583 16
2.7820001 -1.101 -0.55299997 15
2.8629999 -1.135 -0.51999998 18
2.9560001 -1.176 -0.48800001 15
3.0550001 -1.22 -0.45300001 22
2.618 -1.052 -0.61299998 20
2.7030001 -1.087 -0.58600003 18
2.7750001 -1.118 -0.55400002 16
2.859 -1.155 -0.52200001 16
2.9590001 -1.199 -0.49000001 16
3.05 -1.24 -0.45500001 21
2.6170001 -1.071 -0.61500001 18
2.6989999 -1.1059999 -0.58700001 15
2.777 -1.14 -0.55699998 17
2.8559999 -1.175 -0.52399999 16
2.9549999 -1.219 -0.49200001 19
3.049 -1.262 -0.45699999 22
2.6110001 -1.0880001 -0.616 16
2.698 -1.126 -0.58999997 16
2.7780001 -1.161 -0.55900002 15
2.8570001 -1.196 -0.52600002 15
2.954 -1.24 -0.49399999 16
3.0469999 -1.283 -0.45899999 23
2.609 -1.1059999 -0.61799997 18
2.6889999 -1.141 -0.58999997 18
2.7720001 -1.178 -0.56 17
2.848 -1.2130001 -0.52700001 16
2.951 -1.26 -0.49599999 18
3.04 -1.302 -0.46000001 25
0 6.1440001 0 0
0 0 0 0
0 0 0 0
0 0 0 255
2.6070001 -1.124 -0.62099999 21
2.687 -1.16 -0.59299999 17
2.7650001 -1.1950001 -0.56199998 21
2.848 -1.233 -0.52999997 15
2.9449999 -1.277 -0.498 20
3.0439999 -1.324 -0.46399999 19
2.6059999 -1.142 -0.62300003 18
2.6819999 -1.176 -0.59399998 16
2.7639999 -1.214 -0.565 16
2.8429999 -1.25 -0.53200001 16
2.9360001 -1.294 -0.49900001 17
3.0369999 -1.342 -0.465 22
2.598 -1.1569999 -0.62400001 21
2.677 -1.192 -0.59600002 18
2.7579999 -1.23 -0.56599998 18
2.8369999 -1.267 -0.53299999 17
2.931 -1.311 -0.50099999 22
3.0339999 -1.3609999 -0.46799999 21
2.595 -1.173 -0.62699997 20
2.6760001 -1.21 -0.59899998 17
2.7609999 -1.249 -0.56999999 19
2.8329999 -1.284 -0.53600001 18
2.9349999 -1.332 -0.505 17
3.0309999 -1.3789999 -0.47 23
2.5940001 -1.1900001 -0.62900001 20
2.6700001 -1.225 -0.60100001 15
2.7539999 -1.2640001 -0.57099998 18
2.832 -1.301 -0.53799999 18
2.9349999 -1.35 -0.50800002 18
3.026 -1.395 -0.472 24
2.589 -1.204 -0.63099998 19
2.6689999 -1.242 -0.60399997 18
2.747 -1.278 -0.57300001 17
2.829 -1.317 -0.54100001 17
2.925 -1.364 -0.509 16
3.023 -1.4119999 -0.47499999 23
2.585 -1.219 -0.634 20
2.6600001 -1.2539999 -0.60500002 18
2.7460001 -1.295 -0.57599998 18
2.825 -1.3329999 -0.54299998 18
2.924 -1.381 -0.51200002 18
3.0179999 -1.428 -0.477 21
2.5799999 -1.233 -0.63599998 18
2.6600001 -1.27 -0.60799998 17
2.74 -1.308 -0.57800001 16
2.8210001 -1.347 -0.546 17
2.9159999 -1.3940001 -0.514 21
3.0120001 -1.442 -0.47999999 21
2.5780001 -1.247 -0.639 19
2.658 -1.285 -0.611 16
2.7390001 -1.324 -0.58099997 15
2.8169999 -1.3609999 -0.54799998 16
2.9089999 -1.4069999 -0.51599997 18
3.0050001 -1.455 -0.48199999 20
2.5710001 -1.2589999 -0.64099997 19
2.655 -1.298 -0.61400002 16
2.7309999 -1.335 -0.583 21
2.8099999 -1.373 -0.55000001 18
2.9070001 -1.4220001 -0.51899999 15
2.9979999 -1.4680001 -0.484 20
2.5639999 -1.2690001 -0.64200002 18
2.6459999 -1.308 -0.61500001 15
2.7309999 -1.349 -0.58600003 17
2.8050001 -1.386 -0.55299997 16
2.898 -1.432 -0.52100003 17
2.9879999 -1.478 -0.486 18
2.5610001 -1.281 -0.64499998 20
2.642 -1.3200001 -0.61799997 16
2.7219999 -1.359 -0.588 16
2.796 -1.396 -0.55500001 18
2.895 -1.4450001 -0.52399999 17
2.987 -1.492 -0.48899999 18
2.556 -1.2920001 -0.64700001 23
2.6359999 -1.331 -0.62 16
2.7190001 -1.3710001 -0.59100002 17
2.7920001 -1.4069999 -0.55699998 16
2.8889999 -1.456 -0.52600002 18
2.98 -1.502 -0.49200001 18
2.5550001 -1.304 -0.65100002 20
2.6340001 -1.342 -0.62300003 15
2.71 -1.3789999 -0.59200001 16
2.79 -1.418 -0.56 17
2.8840001 -1.466 -0.52899998 16
2.983 -1.517 -0.49599999 19
2.55 -1.313 -0.653 20
2.625 -1.35 -0.62400001 17
2.701 -1.386 -0.59399998 20
2.7839999 -1.428 -0.56300002 16
2.8800001 -1.476 -0.53200001 17
2.97 -1.522 -0.49700001 19
2.5409999 -1.3200001 -0.65399998 20
2.6240001 -1.36 -0.62800002 18
2.704 -1.399 -0.59799999 17
2.7820001 -1.438 -0.56599998 16
2.8740001 -1.484 -0.53399998 16
2.9630001 -1.529 -0.49900001 19
0 6.1440001 0 0
0 0 0 0
0 0 0 0
0 0 0 255
2.54 -1.33 -0.65700001 20
2.6199999 -1.368 -0.63 16
2.691 -1.403 -0.59899998 17
2.773 -1.443 -0.56800002 17
2.8710001 -1.493 -0.537 19
2.9590001 -1.538 -0.50199997 20
2.5380001 -1.3380001 -0.66000003 20
2.6099999 -1.373 -0.63099998 17
2.6930001 -1.413 -0.60299999 16
2.77 -1.452 -0.56999999 17
2.868 -1.501 -0.54000002 21
2.9549999 -1.545 -0.505 21
2.53 -1.3430001 -0.662 17
2.612 -1.383 -0.63499999 16
2.691 -1.421 -0.60600001 18
2.766 -1.4579999 -0.57300001 18
2.858 -1.505 -0.542 16
2.947 -1.55 -0.50700003 19
2.526 -1.35 -0.66399997 19
2.5999999 -1.3839999 -0.63599998 18
2.6800001 -1.423 -0.60600001 16
2.7590001 -1.462 -0.57499999 17
2.8540001 -1.51 -0.54400003 20
2.944 -1.556 -0.50999999 19
2.52 -1.354 -0.66600001 22
2.5999999 -1.392 -0.639 18
2.6789999 -1.4299999 -0.61000001 19
2.7509999 -1.466 -0.57700002 16
2.8499999 -1.515 -0.54699999 19
2.9349999 -1.558 -0.51200002 19
2.5139999 -1.358 -0.66799998 18
2.596 -1.397 -0.64200002 14
2.6719999 -1.433 -0.611 17
2.7509999 -1.472 -0.57999998 18
2.8410001 -1.516 -0.54799998 17
2.9360001 -1.5650001 -0.51499999 21
2.506 -1.359 -0.66900003 19
2.589 -1.399 -0.64300001 15
2.661 -1.433 -0.61199999 19
2.7409999 -1.472 -0.58099997 18
2.8380001 -1.52 -0.551 19
2.9300001 -1.566 -0.51700002 21
2.507 -1.365 -0.67199999 19
2.5880001 -1.403 -0.64600003 16
2.661 -1.437 -0.61500001 19
2.7390001 -1.475 -0.58399999 17
2.8329999 -1.522 -0.55299997 19
2.9230001 -1.567 -0.51899999 20
2.5020001 -1.3660001 -0.67400002 20
2.5739999 -1.4 -0.64499998 17
2.661 -1.441 -0.61799997 17
2.7349999 -1.477 -0.58600003 18
2.832 -1.525 -0.55599999 18
2.9200001 -1.569 -0.52200001 23
2.494 -1.365 -0.67500001 19
2.5739999 -1.403 -0.648 19
2.6470001 -1.437 -0.61799997 16
2.7249999 -1.474 -0.58600003 17
2.8239999 -1.523 -0.55699998 16
2.9130001 -1.567 -0.523 23
2.4909999 -1.3660001 -0.67699999 20
2.566 -1.401 -0.64899999 21
2.6470001 -1.439 -0.62 17
2.721 -1.474 -0.588 17
2.825 -1.525 -0.56 16
2.9089999 -1.566 -0.52499998 22
2.4849999 -1.365 -0.67799997 20
2.5650001 -1.402 -0.65100002 21
2.6400001 -1.437 -0.62099999 16
2.717 -1.472 -0.58999997 16
2.8180001 -1.522 -0.56099999 16
2.904 -1.564 -0.52700001 22
2.4879999 -1.368 -0.68099999 21
2.563 -1.402 -0.653 20
2.641 -1.438 -0.62400001 15
2.717 -1.472 -0.59200001 16
2.8099999 -1.517 -0.56199998 16
2.898 -1.5599999 -0.528 21
2.4790001 -1.363 -0.68099999 22
2.5610001 -1.4 -0.65499997 20
2.645 -1.439 -0.62699997 15
2.7119999 -1.469 -0.59399998 17
2.8050001 -1.5140001 -0.56400001 16
2.902 -1.5599999 -0.53100002 21
2.477 -1.3609999 -0.68199998 21
2.5569999 -1.397 -0.65600002 18
2.635 -1.432 -0.62699997 15
2.707 -1.464 -0.59500003 18
2.803 -1.511 -0.565 16
2.8900001 -1.552 -0.53100002 20
2.4779999 -1.36 -0.685 19
2.5510001 -1.392 -0.65700001 17
2.6329999 -1.429 -0.62900001 16
2.7030001 -1.46 -0.59600002 16
2.7950001 -1.503 -0.565 16
2.8870001 -1.5470001 -0.53299999 22
0 6.1440001 0 0
0 0 0 0
0 0 0 0
0 0 0 255
2.47 -1.354 -0.685 19
2.5510001 -1.3890001 -0.65799999 18
2.6240001 -1.421 -0.62800002 17
2.7 -1.455 -0.597 17
2.793 -1.498 -0.56699997 17
2.882 -1.539 -0.53299999 22
2.4679999 -1.35 -0.68599999 20
2.5480001 -1.385 -0.65899998 22
2.625 -1.418 -0.63 19
2.697 -1.449 -0.59799999 16
2.7869999 -1.49 -0.56699997 18
2.8829999 -1.535 -0.53500003 24
2.4660001 -1.345 -0.68699998 20
2.543 -1.377 -0.65899998 18
2.6210001 -1.411 -0.63099998 17
2.7019999 -1.447 -0.60000002 15
2.779 -1.48 -0.56699997 19
2.8789999 -1.527 -0.53600001 21
2.467 -1.34 -0.68800002 20
2.5439999 -1.373 -0.66100001 17
2.6199999 -1.405 -0.63200003 18
2.6960001 -1.437 -0.60000002 18
2.783 -1.476 -0.56900001 17
2.8729999 -1.517 -0.53600001 20
2.4579999 -1.33 -0.68699998 18
2.54 -1.365 -0.66100001 16
2.622 -1.4 -0.63300002 17
2.6949999 -1.4299999 -0.60100001 15
2.7820001 -1.4680001 -0.56999999 18
2.875 -1.51 -0.53799999 23
2.46 -1.325 -0.68800002 18
2.536 -1.3559999 -0.66100001 16
2.619 -1.391 -0.63300002 17
2.6919999 -1.421 -0.60100001 17
2.777 -1.457 -0.56999999 17
2.869 -1.498 -0.53799999 22
2.4560001 -1.316 -0.68800002 18
2.5369999 -1.349 -0.662 15
2.6129999 -1.38 -0.63300002 16
2.694 -1.413 -0.602 16
2.777 -1.449 -0.57099998 17
2.868 -1.489 -0.53799999 22
2.4530001 -1.307 -0.68699998 17
2.536 -1.34 -0.662 17
2.612 -1.3710001 -0.63300002 17
2.688 -1.401 -0.60100001 16
2.7720001 -1.436 -0.56999999 17
2.859 -1.474 -0.537 19
2.4560001 -1.299 -0.68800002 15
2.5350001 -1.331 -0.662 17
2.6129999 -1.362 -0.63300002 17
2.6860001 -1.391 -0.602 17
2.766 -1.423 -0.56900001 18
2.8659999 -1.466 -0.53799999 22
2.4579999 -1.2920001 -0.68900001 19
2.5339999 -1.321 -0.662 16
2.609 -1.35 -0.63300002 17
2.6819999 -1.378 -0.60100001 16
2.77 -1.414 -0.56999999 18
2.8529999 -1.448 -0.53600001 21
2.4579999 -1.281 -0.68900001 18
2.5309999 -1.309 -0.66100001 16
2.612 -1.34 -0.63300002 17
2.688 -1.37 -0.602 17
2.7679999 -1.401 -0.56900001 17
2.8659999 -1.442 -0.53799999 23
2.4560001 -1.27 -0.68800002 18
2.529 -1.2970001 -0.66000003 15
2.609 -1.3279999 -0.63200003 16
2.688 -1.358 -0.602 18
2.7750001 -1.393 -0.57099998 22
2.862 -1.427 -0.537 21
2.4560001 -1.2589999 -0.68699998 16
2.5320001 -1.2869999 -0.66000003 16
2.605 -1.314 -0.63099998 18
2.6849999 -1.344 -0.60000002 17
2.766 -1.375 -0.56800002 20
2.8570001 -1.411 -0.53600001 20
2.4579999 -1.248 -0.68699998 17
2.5309999 -1.274 -0.65899998 14
2.609 -1.303 -0.63099998 17
2.684 -1.33 -0.60000002 17
2.767 -1.362 -0.56800002 19
2.8570001 -1.397 -0.53500003 20
2.457 -1.235 -0.68599999 17
2.53 -1.261 -0.65799999 14
2.608 -1.289 -0.63 17
2.6889999 -1.319 -0.60000002 19
2.7739999 -1.351 -0.56800002 20
2.8599999 -1.383 -0.53500003 23
2.457 -1.222 -0.685 19
2.5320001 -1.248 -0.65799999 14
2.6099999 -1.276 -0.62900001 15
2.687 -1.303 -0.59799999 18
2.7739999 -1.336 -0.56699997 19
2.858 -1.367 -0.53399998 20
0 6.1440001 0 0
0 0 0 0
0 0 0 0
0 0 0 255
2.457 -1.209 -0.68400002 20
2.5320001 -1.234 -0.65600002 15
2.609 -1.261 -0.62800002 16
2.6889999 -1.289 -0.597 17
2.7739999 -1.3200001 -0.56599998 18
2.862 -1.353 -0.53299999 22
2.46 -1.196 -0.68300003 22
2.5280001 -1.2180001 -0.65399998 14
2.6110001 -1.247 -0.62699997 15
2.687 -1.273 -0.59600002 17
2.7720001 -1.303 -0.56400001 22
2.865 -1.337 -0.53299999 25
2.4560001 -1.1799999 -0.68000001 19
2.536 -1.207 -0.65399998 16
2.6129999 -1.233 -0.62599999 18
2.6919999 -1.2589999 -0.59500003 18
2.7739999 -1.2869999 -0.56300002 19
2.8610001 -1.318 -0.52999997 22
2.4630001 -1.168 -0.68000001 21
2.5350001 -1.191 -0.653 14
2.6159999 -1.2180001 -0.625 17
2.688 -1.2410001 -0.59299999 17
2.7780001 -1.273 -0.56300002 22
2.862 -1.301 -0.52899998 23
2.4690001 -1.155 -0.68000001 20
2.5409999 -1.178 -0.65200001 16
2.6170001 -1.202 -0.62300003 16
2.694 -1.227 -0.59200001 20
2.779 -1.256 -0.56099999 20
2.865 -1.285 -0.528 24
2.467 -1.1390001 -0.67799997 18
2.5409999 -1.1619999 -0.64999998 17
2.6199999 -1.187 -0.62199998 16
2.6949999 -1.21 -0.58999997 18
2.7820001 -1.239 -0.56 19
2.8699999 -1.2690001 -0.52700001 20
2.4679999 -1.123 -0.676 20
2.546 -1.147 -0.64899999 16
2.6229999 -1.171 -0.62 18
2.6949999 -1.192 -0.588 19
2.786 -1.222 -0.55800003 18
2.872 -1.251 -0.52499998 20
2.471 -1.107 -0.67400002 20
2.5439999 -1.1289999 -0.64600003 18
2.6199999 -1.152 -0.61699998 20
2.701 -1.177 -0.58700001 19
2.783 -1.2029999 -0.55599999 20
2.8740001 -1.232 -0.523 22
2.4690001 -1.09 -0.671 22
2.552 -1.115 -0.64600003 25
2.628 -1.137 -0.61699998 15
2.704 -1.16 -0.58600003 19
2.79 -1.186 -0.55500001 18
2.8759999 -1.2130001 -0.52100003 25
2.483 -1.0779999 -0.67199999 20
2.556 -1.099 -0.64399999 16
2.6389999 -1.123 -0.61699998 16
2.704 -1.141 -0.583 19
2.79 -1.1670001 -0.55199999 19
2.882 -1.196 -0.51999998 22
2.48 -1.059 -0.66900003 20
2.5550001 -1.08 -0.64099997 13
2.6389999 -1.105 -0.61400002 16
2.7090001 -1.124 -0.58200002 19
2.799 -1.151 -0.55199999 19
2.8800001 -1.175 -0.51700002 22
2.4879999 -1.045 -0.66799998 19
2.5610001 -1.064 -0.63999999 17
2.642 -1.087 -0.61199999 16
2.7190001 -1.108 -0.58099997 17
2.8010001 -1.132 -0.54900002 19
2.881 -1.154 -0.51499999 21
2.4879999 -1.026 -0.66500002 20
2.5669999 -1.048 -0.639 16
2.6429999 -1.068 -0.61000001 17
2.717 -1.0880001 -0.57800001 17
2.809 -1.114 -0.54799998 16
2.8929999 -1.138 -0.514 22
2.4879999 -1.008 -0.662 22
2.563 -1.027 -0.63499999 15
2.6459999 -1.05 -0.60799998 19
2.72 -1.069 -0.57599998 17
2.8050001 -1.092 -0.54500002 21
2.895 -1.118 -0.51200002 20
2.494 -0.991 -0.66100001 19
2.5669999 -1.0089999 -0.63300002 16
2.648 -1.031 -0.60500002 16
2.724 -1.05 -0.574 19
2.813 -1.075 -0.54299998 20
2.8989999 -1.098 -0.50999999 22
2.493 -0.972 -0.65700001 19
2.5710001 -0.99199998 -0.63099998 15
2.651 -1.012 -0.602 16
2.7279999 -1.031 -0.57200003 16
2.812 -1.053 -0.54000002 18
2.908 -1.08 -0.509 24
0 6.1440001 0 0
0 0 0 0
0 0 0 0
0 0 0 255
2.5 -0.95499998 -0.65600002 16
2.5780001 -0.97500002 -0.62900001 15
2.655 -0.99299997 -0.60000002 16
2.7290001 -1.011 -0.56900001 16
2.819 -1.034 -0.53799999 18
2.908 -1.058 -0.50599998 22
2.5 -0.93599999 -0.653 18
2.575 -0.95300001 -0.625 16
2.6570001 -0.97299999 -0.59799999 15
2.7349999 -0.99199998 -0.56699997 17
2.8210001 -1.0140001 -0.53600001 17
2.9159999 -1.039 -0.50400001 22
2.5079999 -0.91900003 -0.65100002 18
2.582 -0.93599999 -0.62400001 17
2.6630001 -0.95499998 -0.59600002 18
2.7360001 -0.97100002 -0.56400001 18
2.8299999 -0.995 -0.53500003 19
2.9100001 -1.0140001 -0.5 22
2.5150001 -0.90200001 -0.64999998 19
2.5899999 -0.91799998 -0.62199998 18
2.665 -0.935 -0.59299999 16
2.7420001 -0.95200002 -0.56199998 18
2.8329999 -0.97500002 -0.53200001 18
2.921 -0.995 -0.49900001 27
2.5209999 -0.884 -0.648 22
2.5929999 -0.89899999 -0.62 16
2.6689999 -0.91500002 -0.59100002 15
2.7479999 -0.93300003 -0.56 14
2.835 -0.95300001 -0.52899998 16
2.9230001 -0.97299999 -0.49599999 23
2.523 -0.86400002 -0.64499998 20
2.6010001 -0.88099998 -0.61900002 14
2.6760001 -0.89700001 -0.58899999 18
2.7520001 -0.912 -0.55800003 16
2.839 -0.93199998 -0.52700001 18
2.9260001 -0.95200002 -0.49399999 24
2.5280001 -0.84500003 -0.64300001 18
2.602 -0.86000001 -0.616 18
2.6800001 -0.87699997 -0.58700001 15
2.7539999 -0.89099997 -0.55500001 18
2.8410001 -0.91000003 -0.52399999 17
2.9319999 -0.93099999 -0.491 22
2.5350001 -0.82700002 -0.64099997 21
2.609 -0.84100002 -0.61400002 14
2.687 -0.85699999 -0.58499998 16
2.7609999 -0.87099999 -0.55299997 19
2.849 -0.88999999 -0.52200001 18
2.937 -0.90899998 -0.48899999 23
2.5380001 -0.80699998 -0.639 17
2.6110001 -0.82099998 -0.611 14
2.694 -0.83700001 -0.583 14
2.7650001 -0.85000002 -0.551 14
2.849 -0.86699998 -0.51899999 15
2.941 -0.88700002 -0.48699999 20
2.5439999 -0.78799999 -0.63700002 18
2.615 -0.801 -0.60799998 15
2.6949999 -0.81599998 -0.57999998 13
2.773 -0.83099997 -0.54900002 15
2.8510001 -0.84500003 -0.51599997 15
2.948 -0.866 -0.48500001 18
2.5439999 -0.76700002 -0.63300002 16
2.622 -0.78200001 -0.60699999 17
2.701 -0.796 -0.57800001 13
2.7750001 -0.80900002 -0.546 14
2.859 -0.82499999 -0.51499999 16
2.9449999 -0.84100002 -0.48100001 19
2.546 -0.74699998 -0.63099998 17
2.625 -0.76099998 -0.60399997 13
2.6989999 -0.77399999 -0.574 16
2.7780001 -0.787 -0.54400003 14
2.8599999 -0.80199999 -0.51200002 15
2.9489999 -0.81900001 -0.479 22
2.549 -0.727 -0.62800002 16
2.6300001 -0.741 -0.602 13
2.7049999 -0.75300002 -0.57200003 14
2.7869999 -0.76800001 -0.542 15
2.865 -0.78100002 -0.50999999 14
2.9549999 -0.79699999 -0.47600001 22
2.562 -0.70899999 -0.62800002 16
2.635 -0.72100002 -0.60000002 16
2.7130001 -0.73299998 -0.57099998 14
2.7850001 -0.74400002 -0.53899997 13
2.8729999 -0.75999999 -0.50800002 17
2.9630001 -0.77499998 -0.47499999 22
2.562 -0.68800002 -0.625 16
2.6440001 -0.70099998 -0.59899998 17
2.717 -0.71200001 -0.56900001 16
2.793 -0.72399998 -0.537 13
2.8740001 -0.73699999 -0.505 14
2.97 -0.75300002 -0.47299999 20
2.559 -0.66600001 -0.62099999 19
2.6429999 -0.67900002 -0.59500003 14
2.7160001 -0.68900001 -0.565 15
2.796 -0.70200002 -0.53500003 15
2.8759999 -0.71399999 -0.50199997 17
2.971 -0.73000002 -0.47 22
0 6.1440001 0 0
0 0 0 0
0 0 0 0
0 0 0 255
2.566 -0.64600003 -0.61900002 21
2.6459999 -0.65799999 -0.59299999 18
2.72 -0.66799998 -0.56300002 14
2.793 -0.67799997 -0.53100002 13
2.8789999 -0.69099998 -0.5 14
2.973 -0.70599997 -0.46799999 21
2.5699999 -0.62599999 -0.61699998 18
2.651 -0.63700002 -0.59100002 13
2.7249999 -0.64700001 -0.56099999 16
2.7980001 -0.65700001 -0.52899998 15
2.885 -0.66900003 -0.498 13
2.9790001 -0.68300003 -0.46599999 20
2.573 -0.60500002 -0.61500001 19
2.651 -0.61500001 -0.588 13
2.734 -0.62699997 -0.56 13
2.806 -0.63599998 -0.528 14
2.891 -0.64700001 -0.49599999 15
2.9820001 -0.66000003 -0.463 18
2.575 -0.58399999 -0.61199999 18
2.6559999 -0.59500003 -0.58600003 14
2.7309999 -0.60399997 -0.55599999 13
2.8110001 -0.61400002 -0.52600002 13
2.8929999 -0.62400001 -0.49399999 14
2.984 -0.63599998 -0.461 19
2.579 -0.56300002 -0.61000001 16
2.6589999 -0.57300001 -0.58399999 15
2.7379999 -0.58200002 -0.55500001 14
2.8150001 -0.59100002 -0.52399999 13
2.904 -0.60299999 -0.493 15
2.9879999 -0.61299998 -0.45899999 19
2.582 -0.542 -0.60799998 17
2.665 -0.55199999 -0.58200002 14
2.74 -0.56 -0.55299997 15
2.8180001 -0.56900001 -0.52200001 14
2.902 -0.579 -0.49000001 15
2.9949999 -0.58999997 -0.45699999 18
2.5929999 -0.523 -0.60799998 15
2.664 -0.52999997 -0.579 13
2.7409999 -0.53799999 -0.55000001 15
2.8210001 -0.546 -0.51999998 13
2.9089999 -0.55599999 -0.48899999 14
2.994 -0.56599998 -0.45500001 19
2.5940001 -0.50099999 -0.60500002 16
2.671 -0.509 -0.57800001 13
2.7490001 -0.51700002 -0.54900002 15
2.8239999 -0.52399999 -0.51800001 14
2.9070001 -0.53200001 -0.486 17
3.0020001 -0.54299998 -0.454 19
2.592 -0.479 -0.602 16
2.6760001 -0.48800001 -0.57700002 15
2.7490001 -0.49399999 -0.54699999 14
2.8269999 -0.50099999 -0.51599997 14
2.905 -0.50800002 -0.48300001 15
3.003 -0.51899999 -0.45100001 21
2.598 -0.458 -0.60100001 17
2.6760001 -0.465 -0.574 13
2.7509999 -0.472 -0.54500002 15
2.8299999 -0.479 -0.514 14
2.9089999 -0.48500001 -0.48199999 16
3.003 -0.49399999 -0.449 25
2.6029999 -0.43700001 -0.60000002 15
2.6830001 -0.44400001 -0.574 13
2.757 -0.44999999 -0.54400003 13
2.8329999 -0.456 -0.51200002 13
2.9130001 -0.46200001 -0.47999999 14
3.0039999 -0.47 -0.447 15
2.602 -0.41600001 -0.59799999 14
2.6819999 -0.42199999 -0.57099998 13
2.7539999 -0.42699999 -0.54100001 12
2.835 -0.433 -0.51099998 11
2.9159999 -0.43900001 -0.47799999 13
3.0079999 -0.44600001 -0.44600001 16
2.6029999 -0.39399999 -0.59500003 17
2.6819999 -0.39899999 -0.56900001 13
2.757 -0.40400001 -0.54000002 11
2.8410001 -0.41 -0.50999999 13
2.9260001 -0.417 -0.47799999 12
3.0120001 -0.42199999 -0.44400001 16
2.608 -0.373 -0.59399998 15
2.688 -0.37799999 -0.56800002 12
2.763 -0.38299999 -0.53899997 12
2.835 -0.38600001 -0.50700003 14
2.925 -0.39199999 -0.47600001 14
3.0109999 -0.398 -0.442 17
2.6070001 -0.35100001 -0.59200001 18
2.684 -0.35499999 -0.565 13
2.757 -0.359 -0.53600001 11
2.8380001 -0.36300001 -0.50599998 11
2.921 -0.368 -0.47400001 13
3.0120001 -0.373 -0.44100001 18
2.6129999 -0.329 -0.59200001 15
2.6919999 -0.33399999 -0.565 12
2.7650001 -0.33700001 -0.53500003 10
2.842 -0.34 -0.50400001 12
2.931 -0.345 -0.47400001 12
3.017 -0.34999999 -0.44 16
0 6.1440001 0 0
0 0 0 0
0 0 0 0
0 0 0 255
2.609 -0.30700001 -0.58899999 13
2.6900001 -0.31099999 -0.56300002 12
2.766 -0.31400001 -0.53399998 10
2.845 -0.317 -0.50300002 11
2.9289999 -0.32100001 -0.472 15
3.0179999 -0.32499999 -0.43900001 18
2.6140001 -0.28600001 -0.58899999 16
2.6849999 -0.28799999 -0.56099999 13
2.7720001 -0.292 -0.53399998 10
2.845 -0.294 -0.50199997 12
2.9300001 -0.29699999 -0.47 13
3.02 -0.301 -0.43700001 19
2.6199999 -0.26499999 -0.58899999 12
2.687 -0.266 -0.55900002 12
2.7709999 -0.26899999 -0.53200001 11
2.849 -0.271 -0.50099999 11
2.9300001 -0.27399999 -0.46900001 13
3.0179999 -0.27700001 -0.43599999 16
2.6199999 -0.243 -0.58700001 15
2.691 -0.244 -0.55900002 14
2.766 -0.24600001 -0.52999997 13
2.846 -0.248 -0.5 12
2.9319999 -0.25 -0.46799999 13
3.0250001 -0.252 -0.43599999 18
2.6159999 -0.22 -0.58499998 15
2.6919999 -0.222 -0.55800003 13
2.767 -0.223 -0.52899998 11
2.849 -0.22400001 -0.49900001 12
2.934 -0.226 -0.46700001 14
3.0220001 -0.228 -0.43399999 17
2.622 -0.199 -0.58499998 14
2.694 -0.199 -0.55699998 13
2.7679999 -0.2 -0.528 11
2.846 -0.20100001 -0.49700001 12
2.9330001 -0.20200001 -0.46599999 13
3.0239999 -0.20299999 -0.433 19
2.6140001 -0.176 -0.583 16
2.691 -0.177 -0.55599999 12
2.7720001 -0.177 -0.528 11
2.8499999 -0.177 -0.49700001 12
2.9289999 -0.178 -0.465 14
3.027 -0.17900001 -0.433 17
2.615 -0.154 -0.58200002 14
2.688 -0.154 -0.55400002 12
2.77 -0.154 -0.52700001 11
2.8529999 -0.154 -0.49700001 11
2.9349999 -0.154 -0.465 14
3.0220001 -0.154 -0.43200001 18
2.619 -0.133 -0.58200002 14
2.694 -0.132 -0.55500001 12
2.7679999 -0.131 -0.52600002 12
2.848 -0.131 -0.495 12
2.928 -0.13 -0.463 13
3.02 -0.13 -0.43099999 17
2.612 -0.111 -0.57999998 14
2.6919999 -0.11 -0.55400002 13
2.7690001 -0.109 -0.52499998 10
2.8499999 -0.108 -0.495 10
2.928 -0.106 -0.463 13
3.02 -0.106 -0.43000001 19
2.6170001 -0.089000002 -0.58099997 16
2.6930001 -0.088 -0.55400002 12
2.7690001 -0.086000003 -0.52499998 11
2.852 -0.085000001 -0.495 11
2.9260001 -0.082999997 -0.46200001 13
3.0190001 -0.081 -0.43000001 18
2.615 -0.067000002 -0.57999998 16
2.6889999 -0.066 -0.55299997 12
2.7690001 -0.064000003 -0.52499998 10
2.8380001 -0.061000001 -0.493 10
2.927 -0.059 -0.46200001 17
3.013 -0.057 -0.42899999 18
2.612 -0.046 -0.579 13
2.6900001 -0.044 -0.55299997 12
2.7679999 -0.041000001 -0.52399999 12
2.849 -0.037999999 -0.49399999 11
2.9289999 -0.035999998 -0.46200001 15
3.0109999 -0.033 -0.428 16
2.6159999 -0.024 -0.57999998 12
2.6930001 -0.022 -0.55299997 12
2.7639999 -0.017999999 -0.523 12
2.8469999 -0.015 -0.49399999 11
2.9219999 -0.012 -0.461 15
3.0139999 -0.0089999996 -0.42899999 20
2.6159999 -0.003 -0.57999998 13
2.6900001 0 -0.55299997 14
2.7639999 0.003 -0.52399999 12
2.8429999 0.0070000002 -0.493 11
2.9219999 0.011 -0.461 12
3.013 0.015 -0.42899999 18
2.612 0.017999999 -0.579 14
2.684 0.022 -0.55199999 11
2.7609999 0.026000001 -0.523 10
2.839 0.029999999 -0.493 10
2.9200001 0.034000002 -0.461 14
3.01 0.039000001 -0.42899999 15
0 6.1440001 0 0
0 0 0 0
0 0 0 0
0 0 0 255
2.6110001 0.039999999 -0.579 14
2.6819999 0.044 -0.551 11
2.7590001 0.048 -0.523 11
2.832 0.052999999 -0.49200001 12
2.9130001 0.057999998 -0.461 13
3.0009999 0.063000001 -0.428 17
2.612 0.061000001 -0.57999998 12
2.6819999 0.066 -0.55199999 12
2.7509999 0.071000002 -0.52200001 11
2.8380001 0.075999998 -0.49399999 12
2.9089999 0.081 -0.46000001 13
3.003 0.086999997 -0.42899999 17
2.608 0.082999997 -0.57999998 16
2.6819999 0.088 -0.55199999 12
2.7579999 0.093000002 -0.52399999 12
2.8329999 0.098999999 -0.493 14
2.918 0.105 -0.463 14
3.0050001 0.111 -0.43000001 18
2.6010001 0.104 -0.579 13
2.677 0.11 -0.55199999 12
2.753 0.116 -0.52399999 12
2.826 0.122 -0.493 13
2.9119999 0.12800001 -0.46200001 12
3.0009999 0.13500001 -0.43000001 19
2.6029999 0.126 -0.57999998 14
2.6700001 0.131 -0.55199999 13
2.7479999 0.138 -0.52399999 11
2.8269999 0.145 -0.49399999 10
2.904 0.15099999 -0.46200001 13
2.9979999 0.15899999 -0.43000001 17
2.599 0.147 -0.57999998 15
2.6670001 0.153 -0.55199999 13
2.7460001 0.16 -0.52399999 12
2.823 0.167 -0.49399999 11
2.9070001 0.175 -0.463 13
2.993 0.183 -0.43099999 17
2.6010001 0.169 -0.58099997 13
2.671 0.175 -0.55400002 12
2.7460001 0.183 -0.52499998 12
2.8199999 0.19 -0.495 11
2.9000001 0.198 -0.463 13
2.987 0.207 -0.43099999 16
2.5910001 0.19 -0.58099997 12
2.661 0.197 -0.55299997 13
2.74 0.205 -0.52600002 12
2.819 0.213 -0.49599999 11
2.901 0.221 -0.465 14
2.987 0.23 -0.43200001 17
2.589 0.211 -0.58099997 13
2.6630001 0.219 -0.55500001 12
2.74 0.227 -0.52700001 14
2.816 0.235 -0.49700001 12
2.8900001 0.244 -0.46399999 12
2.9820001 0.25400001 -0.433 15
2.5880001 0.23199999 -0.583 14
2.6619999 0.241 -0.55599999 15
2.7379999 0.249 -0.528 11
2.813 0.25799999 -0.498 12
2.891 0.26699999 -0.46599999 11
2.9760001 0.27700001 -0.433 14
2.582 0.25299999 -0.583 14
2.654 0.26100001 -0.55599999 12
2.7320001 0.271 -0.528 11
2.802 0.27900001 -0.49700001 10
2.891 0.28999999 -0.46799999 11
2.9760001 0.30000001 -0.435 15
2.5799999 0.27399999 -0.58399999 14
2.652 0.28299999 -0.55699998 12
2.724 0.292 -0.528 10
2.806 0.30199999 -0.5 10
2.8840001 0.31200001 -0.46799999 11
2.974 0.324 -0.43599999 15
2.5739999 0.294 -0.58499998 18
2.6440001 0.303 -0.55699998 13
2.7249999 0.31400001 -0.52999997 12
2.796 0.324 -0.49900001 11
2.875 0.33399999 -0.46799999 12
2.967 0.347 -0.43700001 17
2.572 0.315 -0.58600003 13
2.641 0.32499999 -0.55800003 13
2.7179999 0.33500001 -0.53100002 10
2.793 0.34599999 -0.50099999 11
2.8800001 0.35800001 -0.47099999 12
2.9649999 0.37 -0.43900001 14
2.5699999 0.336 -0.58700001 16
2.635 0.345 -0.55900002 12
2.717 0.35699999 -0.53299999 11
2.7920001 0.368 -0.50300002 10
2.868 0.37900001 -0.47099999 12
2.954 0.39199999 -0.43900001 17
2.5639999 0.35600001 -0.588 19
2.6329999 0.36700001 -0.56099999 14
2.707 0.37799999 -0.53299999 12
2.7869999 0.38999999 -0.50400001 11
2.869 0.403 -0.47299999 14
2.951 0.41600001 -0.44 15
0 6.1440001 0 0
0 0 0 0
0 0 0 0
0 0 0 255
2.5580001 0.377 -0.58899999 15
2.6300001 0.38800001 -0.56199998 14
2.707 0.40000001 -0.53500003 12
2.786 0.412 -0.50599998 12
2.865 0.42500001 -0.47499999 14
2.9489999 0.43900001 -0.442 19
2.5510001 0.39700001 -0.58999997 15
2.6240001 0.40799999 -0.56300002 13
2.707 0.42199999 -0.537 13
2.78 0.43399999 -0.50700003 11
2.8559999 0.44600001 -0.47499999 12
2.941 0.461 -0.44299999 18
2.55 0.41800001 -0.59200001 15
2.622 0.42899999 -0.565 14
2.7019999 0.44299999 -0.53799999 13
2.7709999 0.45500001 -0.50700003 12
2.8510001 0.46900001 -0.477 12
2.938 0.484 -0.44499999 18
2.5420001 0.43700001 -0.59200001 19
2.618 0.44999999 -0.56699997 13
2.6900001 0.463 -0.53799999 11
2.77 0.477 -0.50999999 12
2.848 0.491 -0.479 14
2.9289999 0.50599998 -0.44600001 16
2.536 0.45699999 -0.59299999 16
2.6099999 0.47 -0.56800002 13
2.6889999 0.484 -0.54100001 13
2.756 0.49700001 -0.50999999 12
2.846 0.51300001 -0.48100001 12
2.921 0.52700001 -0.447 17
2.533 0.477 -0.59500003 17
2.6110001 0.491 -0.56999999 15
2.681 0.50400001 -0.542 14
2.7590001 0.51899999 -0.51300001 12
2.835 0.53399998 -0.48100001 12
2.918 0.55000001 -0.449 21
2.533 0.498 -0.59799999 16
2.598 0.50999999 -0.56999999 14
2.677 0.52499998 -0.54299998 13
2.756 0.54100001 -0.51499999 12
2.829 0.55500001 -0.48300001 13
2.9119999 0.57099998 -0.45100001 16
2.5250001 0.51700002 -0.59899998 21
2.599 0.53100002 -0.57300001 14
2.6689999 0.54500002 -0.54400003 14
2.743 0.56 -0.51499999 12
2.8210001 0.57599998 -0.484 14
2.9070001 0.59299999 -0.45300001 17
2.5150001 0.53500003 -0.59899998 18
