# .PCD v0.7 - Point Cloud Data file format
VERSION 0.7
FIELDS x y z intensity
SIZE 4 4 4 4
TYPE F F F F
COUNT 1 1 1 1
WIDTH 1722
HEIGHT 1
VIEWPOINT 0 0 0 1 0 0 0
POINTS 1722
DATA ascii
7.882 -0.77700001 1.418 16
8.6379995 -0.87300003 1.696 15
9.467 -0.98000002 2.0150001 14
6.3800001 -0.634 0.84399998 15
6.8169999 -0.69300002 1.01 16
0 0 0 50
7.9200001 -0.84200001 1.4299999 15
8.6899996 -0.94599998 1.712 15
9.5340004 -1.062 2.0380001 14
6.415 -0.68699998 0.85299999 15
6.8439999 -0.74800003 1.0190001 14
7.3639998 -0.82300001 1.215 14
7.967 -0.90899998 1.4450001 16
8.7440004 -1.02 1.73 14
9.5860004 -1.143 2.0569999 13
6.4390001 -0.73799998 0.861 13
6.875 -0.80400002 1.029 14
7.3979998 -0.88300002 1.227 14
8.0030003 -0.97500002 1.4579999 15
8.7980003 -1.094 1.748 15
9.6560001 -1.226 2.0799999 13
6.4619999 -0.78899997 0.86799997 13
6.8969998 -0.85900003 1.0369999 14
0 0 0 50
8.0530005 -1.043 1.474 18
8.8529997 -1.169 1.767 14
9.7139997 -1.309 2.1010001 14
6.4809999 -0.83999997 0.87599999 15
6.9310002 -0.91500002 1.048 14
7.4640002 -1.0039999 1.249 15
8.0889997 -1.109 1.487 14
8.8959999 -1.243 1.783 14
9.7880001 -1.3940001 2.1259999 14
6.5120001 -0.89300001 0.88499999 15
0 0 0 50
7.5 -1.066 1.262 13
8.1400003 -1.178 1.503 13
8.9549999 -1.3200001 1.803 14
9.849 -1.479 2.148 14
6.5359998 -0.94499999 0.89300001 13
6.9959998 -1.029 1.069 14
7.5440001 -1.1289999 1.275 14
8.1890001 -1.247 1.5190001 14
9.0100002 -1.397 1.822 14
9.9379997 -1.569 2.177 14
6.5760002 -1 0.90399998 13
7.027 -1.086 1.079 15
7.5929999 -1.193 1.29 13
8.2299995 -1.3150001 1.534 13
9.0710001 -1.475 1.8430001 14
10.022 -1.658 2.2049999 13
6.5999999 -1.052 0.912 12
7.0609999 -1.143 1.09 15
7.6209998 -1.2539999 1.301 14
0 0 0 50
9.092 -1.5470001 1.855 18
10.085 -1.745 2.2290001 13
6.6149998 -1.103 0.92000002 12
7.0999999 -1.202 1.102 15
7.658 -1.317 1.314 13
8.3249998 -1.455 1.567 14
9.1669998 -1.628 1.8789999 28
10.163 -1.835 2.256 13
6.6560001 -1.159 0.93099999 13
7.1409998 -1.262 1.115 14
7.7049999 -1.382 1.329 13
8.3690004 -1.525 1.5829999 15
9.2349997 -1.709 1.902 28
0 0 0 50
6.6869998 -1.2130001 0.94099998 13
7.1760001 -1.321 1.126 13
7.7459998 -1.446 1.3430001 12
8.4359999 -1.599 1.603 13
9.335 -1.7970001 1.932 24
10.333 -2.02 2.3150001 14
6.7249999 -1.268 0.95200002 13
7.2059999 -1.378 1.137 15
7.79 -1.511 1.358 12
8.4840002 -1.67 1.62 13
9.408 -1.88 1.956 15
10.382 -2.1070001 2.336 15
0 6.1440001 0 0
0 0 0 0
0 0 0 0
0 0 0 255
6.7470002 -1.3200001 0.95999998 13
7.25 -1.438 1.15 14
7.8319998 -1.576 1.372 12
0 0 0 50
9.4580002 -1.959 1.975 15
10.501 -2.2079999 2.3740001 14
6.7740002 -1.374 0.96899998 15
7.2750001 -1.4960001 1.16 14
7.8800001 -1.642 1.387 13
8.6020002 -1.818 1.659 13
9.5170002 -2.04 1.997 14
10.6 -2.306 2.4059999 14
6.7979999 -1.428 0.97899997 15
7.3070002 -1.554 1.171 15
7.9180002 -1.707 1.401 14
8.6540003 -1.891 1.677 14
9.585 -2.125 2.02 14
10.68 -2.401 2.4360001 14
6.8309999 -1.483 0.98900002 15
7.3390002 -1.613 1.183 14
7.9520001 -1.771 1.414 12
0 0 0 50
9.6540003 -2.2079999 2.0439999 14
10.755 -2.4949999 2.4630001 14
6.8629999 -1.5369999 0.99900001 15
7.369 -1.67 1.194 13
7.9790001 -1.832 1.426 13
8.7670002 -2.04 1.715 15
9.7320004 -2.2950001 2.0699999 14
10.853 -2.595 2.4960001 14
6.8909998 -1.591 1.008 15
7.4159999 -1.733 1.207 14
8.0360003 -1.901 1.443 13
8.8260002 -2.1140001 1.734 14
9.8070002 -2.381 2.095 13
10.943 -2.6930001 2.5280001 13
6.9190001 -1.6440001 1.018 15
7.447 -1.791 1.2180001 14
8.0780001 -1.966 1.457 13
8.8599997 -2.184 1.748 14
9.8730001 -2.4649999 2.118 14
11.018 -2.7880001 2.556 13
6.9460001 -1.698 1.027 15
7.4819999 -1.85 1.23 14
8.118 -2.0309999 1.471 13
8.915 -2.2579999 1.767 14
9.9499998 -2.552 2.1429999 13
11.129 -2.8929999 2.592 11
6.9749999 -1.751 1.0369999 16
7.513 -1.908 1.2410001 13
0 0 0 50
8.9680004 -2.332 1.785 14
10.011 -2.6359999 2.165 14
11.219 -2.9920001 2.6229999 11
7.007 -1.806 1.046 16
7.5510001 -1.9680001 1.253 15
8.2069998 -2.1630001 1.501 14
9.0209999 -2.4059999 1.803 14
10.063 -2.717 2.1860001 13
11.293 -3.0880001 2.651 10
7.0310001 -1.858 1.0549999 16
7.5819998 -2.0250001 1.2640001 13
8.2489996 -2.2279999 1.5140001 14
9.0979996 -2.4860001 1.826 13
10.142 -2.8050001 2.211 13
11.386 -3.1889999 2.6819999 9
7.0570002 -1.91 1.064 16
7.619 -2.0840001 1.276 14
8.2910004 -2.2920001 1.528 14
9.1379995 -2.556 1.841 14
10.211 -2.8900001 2.234 12
11.46 -3.2839999 2.71 9
7.086 -1.9630001 1.073 15
7.6479998 -2.141 1.286 14
8.3310003 -2.3570001 1.541 13
9.1999998 -2.632 1.86 14
10.257 -2.9690001 2.2520001 13
11.547 -3.3829999 2.7390001 10
7.112 -2.0139999 1.081 15
7.684 -2.1989999 1.296 14
8.3610001 -2.418 1.552 13
9.2290001 -2.698 1.872 14
10.326 -3.053 2.2750001 13
11.63 -3.48 2.7679999 10
7.1389999 -2.066 1.089 15
7.7179999 -2.2550001 1.307 13
8.4160004 -2.4849999 1.568 13
9.2790003 -2.7690001 1.8890001 15
10.378 -3.132 2.293 12
0 0 0 50
7.165 -2.1159999 1.097 15
7.7480001 -2.3110001 1.317 13
8.4560003 -2.5469999 1.581 13
9.3290005 -2.8399999 1.905 14
10.445 -3.2149999 2.3150001 12
11.789 -3.671 2.822 10
0 6.1440001 0 0
0 0 0 0
0 0 0 0
0 0 0 255
7.204 -2.1700001 1.107 17
7.7729998 -2.3640001 1.325 16
8.4840002 -2.605 1.591 13
9.368 -2.9070001 1.918 14
10.479 -3.2880001 2.329 12
11.874 -3.7679999 2.8499999 10
7.2140002 -2.2149999 1.112 17
7.8060002 -2.4189999 1.334 15
8.5270004 -2.668 1.603 12
9.4119997 -2.9760001 1.932 13
10.545 -3.369 2.349 11
11.935 -3.8559999 2.872 11
7.2399998 -2.2639999 1.119 14
7.8260002 -2.47 1.341 14
8.566 -2.7290001 1.615 13
9.448 -3.04 1.944 13
10.595 -3.4449999 2.3659999 10
12 -3.9449999 2.8929999 11
7.2540002 -2.309 1.124 15
7.8590002 -2.523 1.35 15
8.592 -2.7850001 1.623 14
9.4829998 -3.1040001 1.956 13
10.646 -3.52 2.3829999 9
12.056 -4.0289998 2.9130001 11
7.2789998 -2.355 1.13 16
7.875 -2.5710001 1.3559999 14
8.6160002 -2.8380001 1.631 13
9.5030003 -3.161 1.964 13
10.688 -3.5910001 2.3959999 11
12.116 -4.1139998 2.9330001 11
7.2969999 -2.3989999 1.135 15
7.8959999 -2.619 1.362 16
8.6420002 -2.892 1.6390001 14
9.5360003 -3.221 1.974 12
10.721 -3.6570001 2.408 9
12.162 -4.1919999 2.9489999 11
7.303 -2.4389999 1.138 15
7.9180002 -2.6659999 1.368 15
8.6630001 -2.9430001 1.645 14
9.552 -3.2739999 1.979 14
10.74 -3.7179999 2.415 9
12.216 -4.2709999 2.9649999 11
7.3169999 -2.4790001 1.142 14
7.927 -2.7079999 1.3710001 14
8.6789999 -2.9909999 1.65 13
0 0 0 50
10.783 -3.7850001 2.428 10
12.254 -4.3439999 2.9779999 12
7.329 -2.5190001 1.145 15
7.9380002 -2.7490001 1.374 14
8.6899996 -3.0350001 1.653 14
9.592 -3.3800001 1.992 14
10.803 -3.842 2.434 10
12.271 -4.4070001 2.984 12
7.342 -2.5569999 1.148 15
7.9569998 -2.7920001 1.378 13
8.6999998 -3.0780001 1.656 13
9.6190004 -3.4330001 1.999 13
10.82 -3.8970001 2.4389999 10
12.312 -4.4770002 2.9960001 12
7.3470001 -2.5910001 1.149 16
7.9660001 -2.8310001 1.38 14
8.7159996 -3.122 1.66 13
9.6269999 -3.477 2 13
10.828 -3.9460001 2.441 10
12.317 -4.5310001 2.9979999 12
7.3520002 -2.6240001 1.149 15
7.9710002 -2.8659999 1.381 14
8.7189999 -3.1589999 1.66 14
9.6389999 -3.5209999 2.003 13
10.853 -3.9990001 2.447 10
12.343 -4.5900002 3.003 12
7.3520002 -2.654 1.149 17
7.9710002 -2.898 1.38 14
8.7290001 -3.198 1.661 14
9.6450005 -3.562 2.0039999 13
10.842 -4.0380001 2.4430001 10
12.346 -4.6389999 3.0039999 12
7.3509998 -2.6830001 1.147 15
7.973 -2.9300001 1.38 14
8.7270002 -3.23 1.659 14
9.6389999 -3.595 2.0009999 14
10.845 -4.079 2.4419999 10
12.343 -4.6830001 3.0009999 12
7.3540001 -2.711 1.146 15
7.9699998 -2.957 1.377 14
8.7340002 -3.2639999 1.659 13
9.632 -3.6270001 1.997 12
0 0 0 50
12.337 -4.7220001 2.997 12
7.3449998 -2.733 1.143 16
7.96 -2.98 1.374 15
8.7159996 -3.286 1.654 12
9.6339998 -3.6589999 1.995 12
10.828 -4.1440001 2.4330001 10
12.32 -4.7550001 2.9890001 12
0 6.1440001 0 0
0 0 0 0
0 0 0 0
0 0 0 255
7.3460002 -2.757 1.141 15
7.954 -3.0039999 1.37 14
8.7080002 -3.3099999 1.649 13
9.6169996 -3.6819999 1.988 13
10.804 -4.1680002 2.424 10
12.288 -4.7789998 2.977 12
7.329 -2.773 1.136 16
7.9400001 -3.0220001 1.365 14
8.6949997 -3.3310001 1.643 13
0 0 0 50
10.78 -4.1890001 2.414 8
12.258 -4.8000002 2.964 12
7.3169999 -2.789 1.131 14
7.9310002 -3.04 1.359 14
8.6789999 -3.348 1.636 12
9.5810003 -3.72 1.972 13
10.758 -4.2080002 2.404 10
12.221 -4.816 2.9489999 12
7.3039999 -2.803 1.125 15
7.9169998 -3.0550001 1.353 14
8.6549997 -3.359 1.627 13
9.5469999 -3.7290001 1.96 12
10.716 -4.2150002 2.3889999 10
12.186 -4.829 2.934 12
7.2849998 -2.812 1.118 14
7.8959999 -3.0639999 1.345 13
8.6309996 -3.369 1.618 12
9.5340004 -3.744 1.952 12
10.665 -4.217 2.3710001 10
12.109 -4.822 2.908 10
7.2659998 -2.8199999 1.1109999 15
7.8720002 -3.0710001 1.336 14
8.6070004 -3.3759999 1.608 14
9.4840002 -3.7420001 1.9349999 13
10.621 -4.2189999 2.3540001 10
12.046 -4.8179998 2.8840001 11
7.2529998 -2.829 1.104 15
0 0 0 50
8.5760002 -3.3789999 1.596 14
9.4580002 -3.7479999 1.923 13
10.58 -4.2189999 2.3369999 10
11.981 -4.809 2.859 12
7.2340002 -2.8329999 1.096 15
7.8330002 -3.082 1.318 15
8.5450001 -3.3789999 1.5829999 14
9.4180002 -3.7449999 1.908 14
10.538 -4.2150002 2.319 9
11.892 -4.7880001 2.8280001 12
7.2069998 -2.832 1.086 15
7.7979999 -3.0780001 1.306 15
8.5100002 -3.375 1.5700001 15
9.3730001 -3.737 1.891 15
10.48 -4.2020001 2.2969999 10
11.829 -4.7729998 2.803 12
7.1890001 -2.8329999 1.077 16
7.7670002 -3.073 1.294 14
8.474 -3.369 1.556 15
9.3339996 -3.7290001 1.875 14
10.4 -4.178 2.27 9
11.735 -4.743 2.7690001 11
7.1529999 -2.825 1.066 16
7.7329998 -3.066 1.2819999 15
8.4350004 -3.359 1.541 14
9.276 -3.711 1.854 15
0 0 0 50
11.649 -4.7129998 2.737 12
7.1279998 -2.8199999 1.0549999 15
7.6960001 -3.056 1.268 15
8.3920002 -3.345 1.526 15
9.224 -3.694 1.835 14
10.298 -4.145 2.2279999 10
11.559 -4.678 2.704 11
7.1020002 -2.812 1.044 15
7.665 -3.0450001 1.256 14
8.3559999 -3.332 1.51 15
9.1739998 -3.675 1.816 14
10.198 -4.1040001 2.1949999 11
11.461 -4.6370001 2.6689999 11
7.0650001 -2.7980001 1.0319999 15
7.6209998 -3.027 1.2410001 14
8.309 -3.313 1.493 15
9.1160002 -3.6489999 1.794 14
10.144 -4.079 2.1719999 11
11.367 -4.5939999 2.6340001 11
7.0289998 -2.7820001 1.02 15
7.585 -3.0109999 1.227 14
8.2539997 -3.2880001 1.474 14
9.0480003 -3.618 1.771 14
10.062 -4.04 2.1429999 11
11.276 -4.5489998 2.599 11
6.9970002 -2.767 1.007 15
7.5409999 -2.99 1.211 15
8.2049999 -3.263 1.456 15
8.9940004 -3.589 1.75 14
9.9849997 -4.0009999 2.115 12
11.173 -4.4980001 2.563 10
0 6.1440001 0 0
0 0 0 0
0 0 0 0
0 0 0 255
6.9640002 -2.7490001 0.995 15
7.494 -2.9649999 1.1950001 15
8.1470003 -3.233 1.437 15
8.9420004 -3.5599999 1.729 14
9.9130001 -3.961 2.0869999 11
11.077 -4.4450002 2.526 10
6.9219999 -2.7260001 0.98100001 15
7.4569998 -2.9430001 1.181 15
8.0909996 -3.201 1.4170001 15
8.8699999 -3.52 1.704 15
9.8459997 -3.9219999 2.062 13
10.974 -4.388 2.4890001 9
6.888 -2.704 0.96799999 15
7.408 -2.914 1.164 14
8.0349998 -3.168 1.397 15
8.8120003 -3.484 1.682 13
9.7440004 -3.865 2.0280001 14
10.882 -4.3330002 2.4530001 10
6.8509998 -2.6800001 0.95499998 16
7.362 -2.8840001 1.148 15
7.9840002 -3.1340001 1.3789999 14
8.7379999 -3.4389999 1.6569999 14
9.6820002 -3.822 2.0020001 13
10.756 -4.2610002 2.411 10
6.8140001 -2.654 0.94199997 17
7.3210001 -2.855 1.133 14
7.9320002 -3.099 1.36 15
8.6730003 -3.3959999 1.6339999 14
9.6029997 -3.7709999 1.973 13
10.667 -4.2030001 2.3770001 10
6.77 -2.6229999 0.92699999 16
7.2779999 -2.823 1.117 14
7.8769999 -3.0599999 1.34 14
8.6140003 -3.3540001 1.6109999 15
9.5209999 -3.717 1.944 13
10.564 -4.1360002 2.339 9
6.7329998 -2.5940001 0.91399997 17
7.2389998 -2.7909999 1.102 15
7.8299999 -3.0239999 1.323 14
8.5559998 -3.3099999 1.589 15
9.4370003 -3.6589999 1.914 13
10.488 -4.0780001 2.3080001 12
6.697 -2.5639999 0.90100002 16
7.1900001 -2.7539999 1.085 15
7.7740002 -2.9820001 1.303 14
8.4829998 -3.2590001 1.5650001 14
9.3719997 -3.6070001 1.888 12
10.392 -4.0100002 2.273 11
6.658 -2.5309999 0.88700002 16
7.145 -2.7179999 1.0700001 14
7.723 -2.9400001 1.285 13
8.4169998 -3.2090001 1.5420001 15
9.2790003 -3.543 1.857 12
10.261 -3.927 2.2290001 11
6.6199999 -2.497 0.87400001 15
7.1069999 -2.6819999 1.0549999 13
7.6659999 -2.8940001 1.265 13
8.3570004 -3.1589999 1.5190001 15
9.2019997 -3.484 1.829 12
10.155 -3.852 2.1919999 10
6.5869999 -2.464 0.86199999 16
7.0630002 -2.642 1.04 15
7.6090002 -2.848 1.2460001 14
8.2910004 -3.105 1.497 15
9.1269999 -3.4230001 1.802 13
10.051 -3.776 2.1559999 11
6.5539999 -2.4300001 0.84899998 16
7.0180001 -2.6010001 1.024 16
7.5599999 -2.802 1.228 13
8.2220001 -3.05 1.473 14
9.0570002 -3.3629999 1.776 12
9.9729996 -3.7090001 2.1259999 13
6.5120001 -2.391 0.83600003 16
6.974 -2.5599999 1.01 16
7.5100002 -2.756 1.211 13
8.1590004 -2.9949999 1.452 14
8.9829998 -3.3 1.75 13
9.8669996 -3.6289999 2.0899999 12
6.48 -2.3540001 0.824 16
6.9310002 -2.516 0.995 15
7.4590001 -2.7079999 1.194 14
8.1009998 -2.941 1.431 15
8.9139996 -3.2379999 1.724 14
9.7980003 -3.562 2.062 12
6.4460001 -2.316 0.81199998 15
6.8870001 -2.4719999 0.98000002 16
7.4060001 -2.6570001 1.175 14
8.0349998 -2.8829999 1.409 14
8.8360004 -3.171 1.698 13
9.7119999 -3.4879999 2.0309999 12
6.414 -2.2780001 0.80000001 16
6.8439999 -2.428 0.96600002 16
7.3660002 -2.6110001 1.16 13
7.9710002 -2.825 1.388 13
8.7620001 -3.105 1.673 13
9.618 -3.4100001 1.999 12
0 6.1440001 0 0
0 0 0 0
0 0 0 0
0 0 0 255
6.3779998 -2.2379999 0.78899997 16
6.8049998 -2.3840001 0.95200002 16
7.316 -2.5599999 1.1440001 14
7.9229999 -2.7709999 1.37 13
8.7040005 -3.0439999 1.651 14
9.5439997 -3.3380001 1.971 13
6.3499999 -2.198 0.778 17
6.7649999 -2.3380001 0.93900001 17
7.2709999 -2.51 1.128 16
7.8709998 -2.7149999 1.351 14
8.6400003 -2.9790001 1.628 14
9.4549999 -3.26 1.941 13
6.3179998 -2.158 0.76700002 16
6.7249999 -2.2920001 0.926 16
7.237 -2.4630001 1.114 15
7.809 -2.655 1.332 14
8.5769997 -2.915 1.6059999 15
9.3870001 -3.1889999 1.916 13
6.2919998 -2.118 0.75700003 17
6.697 -2.2490001 0.91500002 16
7.1919999 -2.4119999 1.1 14
7.763 -2.5999999 1.3150001 15
8.5170002 -2.8499999 1.585 14
9.316 -3.1159999 1.89 13
6.257 -2.0739999 0.74699998 16
6.6630001 -2.204 0.903 17
7.1570001 -2.3629999 1.087 14
7.7150002 -2.543 1.298 15
8.4530001 -2.7839999 1.564 14
9.2449999 -3.0420001 1.865 13
6.2329998 -2.0339999 0.73799998 16
6.6240001 -2.1559999 0.89099997 17
7.1139998 -2.3110001 1.073 14
7.6669998 -2.4860001 1.2819999 15
8.3950005 -2.7190001 1.543 15
9.184 -2.9719999 1.842 13
6.2059999 -1.9910001 0.72799999 16
6.5939999 -2.1099999 0.88 16
7.0710001 -2.257 1.059 16
7.6240001 -2.4289999 1.267 16
8.3269997 -2.6500001 1.522 16
9.1160002 -2.8970001 1.818 13
6.178 -1.948 0.71899998 16
6.5689998 -2.0650001 0.87099999 17
7.0359998 -2.2060001 1.0470001 17
7.572 -2.369 1.251 18
8.2659998 -2.582 1.502 14
9.0679998 -2.829 1.799 13
6.1479998 -1.904 0.70999998 19
6.539 -2.0179999 0.86000001 16
0 0 0 50
7.5450001 -2.3169999 1.239 17
8.2159996 -2.5179999 1.485 14
8.993 -2.7520001 1.775 13
6.119 -1.859 0.70099998 19
6.5120001 -1.972 0.85100001 17
6.967 -2.1029999 1.024 17
7.4990001 -2.2579999 1.224 16
8.1639996 -2.4530001 1.4680001 13
8.9189997 -2.675 1.752 12
6.1020002 -1.817 0.69400001 18
6.4850001 -1.924 0.84200001 17
6.9219999 -2.0480001 1.011 16
7.4640002 -2.2019999 1.212 14
8.1160002 -2.388 1.451 13
8.8789997 -2.608 1.735 13
6.0799999 -1.774 0.68599999 18
6.4720001 -1.881 0.83499998 17
6.8909998 -1.9960001 1 17
7.4200001 -2.142 1.198 15
8.0740004 -2.325 1.437 13
8.8210001 -2.5339999 1.715 12
6.0570002 -1.73 0.67900002 17
6.4429998 -1.832 0.82599998 17
6.862 -1.944 0.991 17
7.382 -2.085 1.186 16
8.0349998 -2.263 1.423 14
8.7659998 -2.4630001 1.698 12
6.0370002 -1.686 0.67299998 19
6.408 -1.7819999 0.81599998 16
6.835 -1.893 0.98100001 16
7.3509998 -2.0280001 1.175 17
7.9959998 -2.1989999 1.409 14
8.7139997 -2.391 1.6799999 13
6.0089998 -1.6390001 0.66500002 18
6.3909998 -1.735 0.81 16
6.8119998 -1.842 0.97299999 17
7.316 -1.971 1.164 18
7.9460001 -2.1340001 1.3940001 13
8.6719999 -2.322 1.665 13
5.9949999 -1.597 0.66000003 18
6.375 -1.689 0.80299997 17
6.783 -1.789 0.96399999 16
7.2820001 -1.913 1.153 17
7.9109998 -2.0710001 1.382 14
8.6169996 -2.2479999 1.648 12
0 6.1440001 0 0
0 0 0 0
0 0 0 0
0 0 0 255
5.9660001 -1.549 0.653 18
6.3449998 -1.6390001 0.79500002 16
6.757 -1.737 0.95599997 17
7.2550001 -1.857 1.1440001 16
7.8730001 -2.0079999 1.37 16
8.5740004 -2.1789999 1.633 13
5.9530001 -1.505 0.648 19
6.322 -1.59 0.78899997 17
6.7420001 -1.688 0.949 16
7.2280002 -1.801 1.135 15
7.842 -1.9450001 1.359 14
8.5349998 -2.1099999 1.62 12
5.9330001 -1.46 0.64200002 18
6.2989998 -1.541 0.78200001 19
6.7179999 -1.635 0.94199997 17
7.2020001 -1.745 1.126 17
7.8179998 -1.886 1.35 15
8.4879999 -2.039 1.605 12
5.9109998 -1.414 0.63700002 17
0 0 0 0
6.6999998 -1.585 0.93599999 17
7.1820002 -1.6900001 1.119 17
7.7870002 -1.824 1.34 14
8.4689999 -1.975 1.596 12
5.9029999 -1.3710001 0.63300002 18
6.2719998 -1.448 0.77200001 17
6.6760001 -1.5319999 0.92900002 16
7.1570001 -1.633 1.1109999 15
7.757 -1.762 1.33 14
8.4399996 -1.908 1.586 12
5.8860002 -1.325 0.62800002 18
6.2509999 -1.398 0.76599997 16
6.6659999 -1.482 0.92400002 17
7.1300001 -1.577 1.103 16
7.7319999 -1.701 1.322 14
8.4029999 -1.839 1.574 12
5.8709998 -1.28 0.62400001 18
0 0 0 0
6.6440001 -1.4299999 0.91799998 16
0 0 0 50
7.7210002 -1.643 1.316 15
8.3649998 -1.771 1.562 12
5.8610001 -1.2359999 0.62099999 18
6.1869998 -1.295 0.75300002 17
6.6170001 -1.376 0.91100001 16
7.098 -1.467 1.091 15
7.6919999 -1.581 1.307 14
8.3240004 -1.701 1.551 12
5.8429999 -1.189 0.61699998 17
6.191 -1.251 0.75099999 18
6.6110001 -1.327 0.90799999 16
7.0910001 -1.414 1.087 15
7.6789999 -1.522 1.301 16
8.3050003 -1.637 1.543 14
5.8319998 -1.145 0.61299998 17
6.1589999 -1.2 0.745 17
6.5949998 -1.275 0.903 15
7.073 -1.359 1.082 16
7.6490002 -1.46 1.293 14
8.2799997 -1.571 1.535 12
5.823 -1.1 0.611 17
0 0 0 0
6.5780001 -1.224 0.898 15
7.046 -1.302 1.075 16
7.6209998 -1.398 1.286 15
8.2559996 -1.5039999 1.527 16
5.8080001 -1.0549999 0.60699999 18
6.1570001 -1.109 0.741 17
6.5799999 -1.176 0.89600003 17
7.033 -1.247 1.0700001 14
7.6059999 -1.3380001 1.28 16
8.2410002 -1.441 1.521 12
5.8049998 -1.011 0.60500002 15
6.1719999 -1.0650001 0.741 15
6.5609999 -1.123 0.89200002 15
7.0170002 -1.192 1.066 16
7.592 -1.279 1.275 15
8.2049999 -1.372 1.512 11
5.7859998 -0.96399999 0.602 16
6.1149998 -1.0089999 0.73199999 16
6.5450001 -1.071 0.88700002 15
6.9990001 -1.135 1.061 15
7.5669999 -1.217 1.2690001 15
8.1879997 -1.307 1.506 11
5.7740002 -0.91799998 0.59899998 16
0 0 0 0
6.5279999 -1.018 0.88300002 15
6.9780002 -1.079 1.056 16
7.5549998 -1.158 1.2640001 15
8.1630001 -1.2410001 1.498 11
5.776 -0.87400001 0.59799999 16
6.1059999 -0.91500002 0.72799999 17
6.5180001 -0.96700001 0.88 15
6.9660001 -1.023 1.052 16
7.5300002 -1.096 1.258 14
8.1350002 -1.173 1.4910001 12
0 6.1440001 0 0
0 0 0 0
0 0 0 0
0 0 0 255
5.7639999 -0.82800001 0.59600002 16
6.092 -0.86500001 0.72500002 16
6.4970002 -0.91399997 0.87599999 15
6.954 -0.96700001 1.048 16
7.52 -1.036 1.255 15
8.1260004 -1.108 1.487 13
5.763 -0.78299999 0.59500003 17
6.0929999 -0.81800002 0.72399998 18
6.4899998 -0.86199999 0.87400001 15
6.9359999 -0.912 1.044 16
7.5 -0.97500002 1.249 15
8.0930004 -1.0420001 1.479 12
5.7600002 -0.73799998 0.59299999 16
6.0739999 -0.76899999 0.72100002 16
6.4710002 -0.80900002 0.87 15
6.9219999 -0.85500002 1.041 15
7.4819999 -0.91399997 1.245 14
8.085 -0.97600001 1.475 13
5.7470002 -0.69099998 0.59100002 16
6.0689998 -0.72000003 0.71899998 18
6.4640002 -0.75700003 0.86799997 15
6.9060001 -0.79900002 1.0369999 15
0 0 0 50
8.0629997 -0.91100001 1.47 13
5.7290001 -0.64399999 0.58899999 17
6.059 -0.67199999 0.71700001 18
6.4219999 -0.70200002 0.861 16
6.9039998 -0.745 1.035 16
7.4530001 -0.79299998 1.237 15
8.0430002 -0.84500003 1.464 13
5.7329998 -0.59899998 0.588 15
6.0440001 -0.62199998 0.71399999 17
6.4159999 -0.65100002 0.85900003 16
6.882 -0.68800002 1.031 16
7.4390001 -0.73299998 1.233 15
8.0279999 -0.77999997 1.46 13
5.7140002 -0.55199999 0.58600003 17
6.0419998 -0.574 0.713 17
6.4369998 -0.602 0.861 22
6.8699999 -0.63200003 1.028 16
7.4299998 -0.67299998 1.2309999 17
8.0139999 -0.71499997 1.456 14
5.7069998 -0.50599998 0.58399999 16
6.033 -0.52600002 0.71200001 17
6.4099998 -0.54900002 0.85699999 39
6.8629999 -0.57700002 1.026 16
7.4180002 -0.61299998 1.227 15
8.0059996 -0.64999998 1.4529999 15
5.7030001 -0.46000001 0.583 16
6.027 -0.477 0.70999998 17
0 0 0 50
6.8610001 -0.52200001 1.025 16
7.4029999 -0.55199999 1.224 16
7.9819999 -0.58399999 1.448 15
5.6939998 -0.414 0.58200002 17
6.0310001 -0.42899999 0.70999998 22
6.3829999 -0.44400001 0.85100001 37
6.8540001 -0.46700001 1.023 16
7.3870001 -0.49200001 1.22 16
7.9660001 -0.51899999 1.444 14
5.6750002 -0.366 0.579 20
6.013 -0.37900001 0.70700002 40
6.3759999 -0.39199999 0.85000002 20
6.8390002 -0.41 1.02 15
7.3769999 -0.43200001 1.217 16
7.9559999 -0.454 1.441 15
5.6799998 -0.32100001 0.579 17
6.006 -0.33000001 0.70599997 38
6.3889999 -0.34099999 0.85100001 15
6.8260002 -0.354 1.017 16
7.3629999 -0.37099999 1.214 17
7.9390001 -0.38800001 1.437 15
5.6669998 -0.27399999 0.57700002 27
5.9959998 -0.28 0.704 38
6.3559999 -0.287 0.84600002 17
6.8299999 -0.29899999 1.017 16
7.3509998 -0.31099999 1.211 15
7.9289999 -0.324 1.434 15
5.658 -0.227 0.57599998 43
5.9759998 -0.23100001 0.70099998 22
6.3509998 -0.236 0.84399998 17
6.8150001 -0.243 1.0140001 16
7.3340001 -0.25 1.2079999 15
7.914 -0.25799999 1.4299999 14
5.6490002 -0.18099999 0.574 35
0 0 0 50
6.3460002 -0.183 0.84299999 17
6.803 -0.186 1.011 15
7.3309999 -0.19 1.206 16
7.8990002 -0.193 1.426 13
5.6490002 -0.134 0.574 38
5.974 -0.133 0.69999999 15
6.3369999 -0.131 0.84100002 16
6.7880001 -0.131 1.008 15
7.3179998 -0.13 1.2029999 15
7.881 -0.12800001 1.4220001 13
0 6.1440001 0 0
0 0 0 0
0 0 0 0
0 0 0 255
5.6199999 -0.086999997 0.56999999 24
5.9640002 -0.083999999 0.69800001 16
6.3340001 -0.079000004 0.83999997 17
6.7789998 -0.075000003 1.006 15
0 0 0 50
7.8670001 -0.063000001 1.419 14
5.631 -0.041000001 0.57099998 16
5.9660001 -0.035 0.69700003 16
6.3260002 -0.027000001 0.83899999 17
6.7729998 -0.018999999 1.005 14
7.302 -0.0099999998 1.199 15
7.8559999 0 1.416 14
5.6339998 0.0040000002 0.57099998 17
5.9499998 0.013 0.69499999 16
6.3189998 0.024 0.83700001 18
6.7519999 0.035999998 1.001 17
7.3000002 0.050000001 1.198 16
7.8509998 0.066 1.414 15
5.6230001 0.050999999 0.56900001 16
5.9460001 0.063000001 0.69400001 17
6.316 0.077 0.83600003 17
6.7550001 0.092 1 16
7.2789998 0.11 1.194 15
0 0 0 50
5.6199999 0.097999997 0.56800002 15
5.9390001 0.113 0.69199997 17
6.3070002 0.13 0.83399999 18
6.7459998 0.149 0.99800003 15
7.2670002 0.171 1.191 15
7.8210001 0.19599999 1.4069999 14
5.605 0.145 0.56599998 15
5.9260001 0.163 0.69 16
6.2940001 0.182 0.83099997 17
6.7340002 0.205 0.99599999 15
7.257 0.23199999 1.188 15
7.8280001 0.26199999 1.4069999 15
5.605 0.193 0.565 16
5.9239998 0.213 0.68900001 16
6.2880001 0.235 0.82999998 17
6.7179999 0.26100001 0.99199998 16
7.256 0.29300001 1.187 15
0 0 0 50
5.5900002 0.23999999 0.56300002 17
5.9159999 0.26199999 0.68699998 16
6.277 0.28799999 0.82700002 17
6.7090001 0.317 0.99000001 15
7.2379999 0.354 1.183 15
7.7930002 0.39300001 1.399 14
5.5799999 0.287 0.56099999 18
5.9000001 0.31200001 0.685 17
6.276 0.34099999 0.82599998 19
6.684 0.373 0.986 16
7.2319999 0.414 1.181 15
7.7859998 0.458 1.397 15
5.5700002 0.33399999 0.55900002 18
5.8969998 0.36199999 0.68300003 18
6.256 0.39300001 0.82300001 17
6.677 0.43000001 0.98400003 17
7.2249999 0.47600001 1.179 15
7.7750001 0.52399999 1.3940001 15
0 0 0 50
5.8860002 0.412 0.68099999 18
6.2589998 0.447 0.82200003 17
6.6849999 0.48800001 0.98400003 14
7.217 0.53799999 1.177 15
7.7490001 0.58899999 1.388 16
5.553 0.428 0.55500001 18
5.8720002 0.461 0.67799997 17
6.2410002 0.49900001 0.81900001 16
6.6680002 0.54299998 0.98000002 18
7.2059999 0.59799999 1.174 16
7.7379999 0.65399998 1.385 15
5.5539999 0.47600001 0.55400002 16
5.869 0.51099998 0.67699999 17
6.2319999 0.55199999 0.81699997 17
6.6500001 0.59899998 0.97600001 16
7.184 0.65799999 1.169 15
0 0 0 50
5.5339999 0.52200001 0.551 18
5.855 0.56 0.67400002 19
6.217 0.60399997 0.81300002 16
6.6389999 0.65399998 0.97399998 16
7.1820002 0.71899998 1.168 15
7.717 0.78399998 1.3789999 15
5.5349998 0.56999999 0.55000001 17
5.8449998 0.61000001 0.67199999 18
6.21 0.65700001 0.81099999 17
6.631 0.71100003 0.97100002 17
7.1659999 0.77899998 1.164 15
7.7080002 0.85000002 1.376 15
5.52 0.616 0.54699999 18
5.8410001 0.66000003 0.67000002 17
6.2010002 0.70899999 0.80900002 17
6.6269999 0.76800001 0.96899998 16
0 0 0 50
7.6999998 0.91600001 1.373 16
0 6.1440001 0 0
0 0 0 0
0 0 0 0
0 0 0 255
5.52 0.66399997 0.546 17
5.8280001 0.70899999 0.667 18
6.1919999 0.76200002 0.80599999 18
6.6090002 0.82300001 0.96499997 16
7.1479998 0.90200001 1.158 16
7.6799998 0.98100001 1.368 16
5.5089998 0.71200001 0.54299998 18
5.8169999 0.759 0.66500002 17
6.1789999 0.815 0.80299997 17
6.612 0.88099998 0.96399999 15
7.1279998 0.96100003 1.154 16
7.664 1.045 1.364 15
5.5 0.759 0.54100001 18
5.8039999 0.80900002 0.662 17
6.1659999 0.86799997 0.80000001 18
0 0 0 50
7.1100001 1.022 1.15 16
7.651 1.112 1.3609999 15
5.4819999 0.80500001 0.53799999 19
5.796 0.85900003 0.65899998 17
6.1570001 0.921 0.79699999 17
6.5669999 0.991 0.95499998 17
7.1090002 1.084 1.148 17
7.6420002 1.178 1.358 15
5.473 0.852 0.53500003 20
5.7859998 0.90799999 0.65600002 17
6.1479998 0.97399998 0.79500002 16
6.5549998 1.048 0.95200002 18
7.0370002 1.135 1.135 18
7.6259999 1.242 1.353 14
5.4640002 0.89899999 0.53299999 22
0 0 0 50
6.1399999 1.027 0.792 17
6.539 1.102 0.94800001 17
0 0 0 0
7.612 1.307 1.349 15
5.4569998 0.94599998 0.52999997 17
5.7659998 1.007 0.65100002 17
6.1259999 1.079 0.78899997 17
6.5419998 1.161 0.94700003 15
7.052 1.262 1.1339999 15
7.6009998 1.372 1.346 15
5.448 0.99400002 0.528 18
5.7529998 1.057 0.648 17
6.1030002 1.1289999 0.78399998 18
6.5300002 1.2180001 0.94300002 15
7.0370002 1.323 1.13 16
7.5780001 1.437 1.34 15
5.4299998 1.04 0.52399999 17
5.7459998 1.108 0.64499998 16
6.0939999 1.183 0.78100002 17
6.513 1.274 0.93900001 18
7.0240002 1.3839999 1.126 16
7.5669999 1.503 1.336 15
5.4200001 1.087 0.52100003 18
5.737 1.158 0.64200002 16
6.0819998 1.235 0.778 18
6.4879999 1.327 0.93300003 17
6.9980001 1.441 1.12 15
7.5539999 1.568 1.332 15
5.4109998 1.1339999 0.51800001 18
5.7199998 1.206 0.63800001 16
6.0630002 1.286 0.773 17
6.4809999 1.3839999 0.93099999 18
6.9850001 1.502 1.1160001 15
7.5380001 1.633 1.3279999 15
5.395 1.1799999 0.51499999 20
5.711 1.256 0.63499999 16
6.0549998 1.339 0.76999998 16
6.4679999 1.439 0.92699999 19
6.9809999 1.564 1.114 15
0 0 0 50
5.3920002 1.227 0.51200002 16
5.698 1.304 0.63200003 16
6.0409999 1.39 0.76700002 18
6.4439998 1.492 0.92199999 17
6.9499998 1.62 1.107 15
7.5050001 1.761 1.319 14
5.3759999 1.273 0.509 17
5.6869998 1.354 0.62800002 16
6.0250001 1.442 0.76300001 17
6.4260001 1.5470001 0.917 17
6.9419999 1.681 1.104 15
7.494 1.827 1.3150001 13
5.369 1.321 0.50599998 15
5.6680002 1.402 0.62400001 16
6.0170002 1.4960001 0.759 18
6.4349999 1.608 0.917 16
6.9289999 1.742 1.1 15
7.4809999 1.893 1.311 15
5.3600001 1.368 0.50300002 16
5.6589999 1.451 0.62099999 16
5.9990001 1.546 0.755 18
6.4070001 1.659 0.91100001 16
6.915 1.802 1.096 15
7.4629998 1.957 1.306 13
0 6.1440001 0 0
0 0 0 0
0 0 0 0
0 0 0 255
5.3520002 1.416 0.5 16
5.6469998 1.5 0.61799997 16
5.9910002 1.599 0.75199997 17
6.3850002 1.7130001 0.90499997 16
6.8959999 1.86 1.091 15
7.4439998 2.02 1.301 14
5.3260002 1.459 0.495 17
5.6300001 1.548 0.61400002 16
5.98 1.651 0.74900001 17
6.3839998 1.772 0.903 14
6.8779998 1.919 1.087 14
7.428 2.0840001 1.2970001 14
5.3210001 1.507 0.49200001 19
5.6209998 1.598 0.611 19
5.961 1.701 0.74400002 20
6.3699999 1.826 0.89999998 17
6.862 1.977 1.082 16
7.415 2.1489999 1.293 16
5.3099999 1.553 0.48899999 18
5.6100001 1.646 0.60699999 20
5.9450002 1.752 0.74000001 19
0 0 0 50
6.8470001 2.0369999 1.0779999 17
7.3990002 2.2130001 1.288 15
5.2930002 1.598 0.48500001 19
5.5999999 1.697 0.60399997 18
5.9400001 1.807 0.73699999 20
6.3449998 1.939 0.89200002 17
6.8390002 2.0999999 1.075 17
7.375 2.276 1.2819999 15
5.2789998 1.6440001 0.48199999 20
5.5809999 1.744 0.60000002 19
5.9190001 1.8559999 0.73299998 18
6.3260002 1.993 0.88700002 17
6.8280001 2.161 1.071 16
7.3660002 2.342 1.279 15
5.2690001 1.691 0.47799999 19
5.573 1.794 0.597 19
5.9089999 1.91 0.72899997 21
6.316 2.049 0.884 17
6.802 2.217 1.066 16
7.348 2.4059999 1.275 15
5.2540002 1.7359999 0.47499999 20
5.552 1.84 0.59200001 19
5.895 1.96 0.72600001 20
6.2979999 2.102 0.88 16
6.7909999 2.277 1.062 16
7.335 2.471 1.271 13
5.243 1.7819999 0.47099999 19
5.5380001 1.888 0.588 18
5.875 2.01 0.72100002 19
6.2849998 2.158 0.87599999 17
6.776 2.336 1.058 16
7.323 2.5369999 1.268 14
5.23 1.8279999 0.46799999 21
5.5300002 1.938 0.58499998 19
5.875 2.066 0.71899998 19
6.2729998 2.2130001 0.87300003 16
6.7709999 2.398 1.056 15
7.3070002 2.6010001 1.263 13
5.2140002 1.872 0.46399999 20
5.5219998 1.988 0.58200002 19
5.8400002 2.109 0.713 17
6.256 2.267 0.86900002 16
6.7589998 2.4590001 1.052 16
7.2870002 2.6630001 1.2589999 13
5.1989999 1.9170001 0.461 21
5.5009999 2.033 0.57800001 19
5.835 2.1630001 0.71100003 18
6.2470002 2.3239999 0.866 16
6.7490001 2.52 1.049 15
7.2719998 2.727 1.255 13
5.191 1.964 0.458 21
5.4899998 2.082 0.57499999 18
0 0 0 50
6.2340002 2.3789999 0.86199999 16
6.73 2.5780001 1.045 15
7.2490001 2.789 1.25 12
5.1830001 2.0109999 0.45500001 19
5.4860001 2.1340001 0.57300001 18
5.8390002 2.2780001 0.70700002 16
6.2259998 2.4360001 0.85900003 15
6.7249999 2.641 1.043 14
7.2360001 2.8529999 1.247 13
5.1700001 2.056 0.45100001 18
5.4640002 2.178 0.56800002 18
5.7950001 2.316 0.69999999 18
6.2069998 2.4890001 0.85600001 16
6.7140002 2.701 1.04 15
7.224 2.918 1.244 13
5.1550002 2.0999999 0.44800001 18
5.4559999 2.2279999 0.56599998 18
5.8109999 2.3789999 0.70099998 16
6.1939998 2.543 0.852 15
6.7030001 2.7609999 1.0369999 14
7.2080002 2.9809999 1.24 12
0 6.1440001 0 0
0 0 0 0
0 0 0 0
0 0 0 255
5.1459999 2.1470001 0.44499999 19
5.4460001 2.277 0.56300002 18
5.7979999 2.4300001 0.69800001 16
6.1869998 2.6010001 0.85000002 16
6.6890001 2.8210001 1.034 14
7.1950002 3.0469999 1.238 11
0 0 0 50
5.434 2.3239999 0.56 17
5.7820001 2.48 0.69400001 16
6.178 2.6570001 0.84799999 15
6.6669998 2.8770001 1.03 14
7.1739998 3.108 1.234 12
5.1240001 2.2379999 0.44 16
5.4229999 2.3729999 0.55699998 17
5.777 2.5339999 0.69199997 16
6.1680002 2.7119999 0.84500003 15
6.6609998 2.9389999 1.029 13
7.1760001 3.177 1.234 11
5.1139998 2.283 0.43700001 16
5.4060001 2.4189999 0.55400002 17
5.7690001 2.5869999 0.69 16
6.1589999 2.7690001 0.84299999 15
6.6420002 2.9949999 1.025 12
7.152 3.237 1.23 11
5.1069999 2.3310001 0.435 17
5.4060001 2.471 0.55299997 20
0 0 0 50
6.1409998 2.8210001 0.83999997 17
6.6279998 3.053 1.023 15
7.1440001 3.303 1.228 12
5.0929999 2.3740001 0.43200001 19
5.3969998 2.5190001 0.55000001 19
5.7459998 2.688 0.685 19
6.1430001 2.881 0.83999997 17
6.618 3.1129999 1.021 14
7.1329999 3.3670001 1.227 13
5.0890002 2.4219999 0.43000001 21
5.382 2.5650001 0.54799998 20
5.7319999 2.737 0.68300003 18
6.1329999 2.9360001 0.838 17
6.6069999 3.1730001 1.0190001 15
7.1469998 3.444 1.229 17
5.0869999 2.471 0.42899999 19
5.3559999 2.605 0.54400003 18
5.73 2.7920001 0.68199998 18
6.1300001 2.9949999 0.83700001 17
6.598 3.233 1.018 15
7.158 3.52 1.232 29
5.0760002 2.516 0.42699999 19
5.3889999 2.675 0.54699999 17
5.717 2.842 0.68000001 17
6.112 3.046 0.83499998 16
6.5890002 3.293 1.017 14
7.1399999 3.5810001 1.23 40
5.066 2.5610001 0.42500001 19
0 0 0 50
5.7140002 2.8970001 0.67900002 17
6.1069999 3.1029999 0.83399999 14
6.5809999 3.3540001 1.016 14
7.086 3.6229999 1.222 45
5.0580001 2.6059999 0.42300001 19
5.3579998 2.7639999 0.542 19
5.704 2.948 0.67799997 17
6.0949998 3.1570001 0.833 16
6.5780001 3.4170001 1.017 15
7.066 3.6830001 1.22 34
5.053 2.654 0.42199999 19
5.3499999 2.813 0.54100001 19
5.6919999 2.997 0.67699999 18
6.085 3.2119999 0.83200002 15
6.572 3.4790001 1.017 13
7.0560002 3.747 1.22 22
5.0479999 2.7 0.421 18
5.3629999 2.872 0.542 17
5.6890001 3.052 0.67699999 16
6.0809999 3.2690001 0.83200002 15
6.5689998 3.54 1.018 13
7.086 3.832 1.227 13
5.0370002 2.743 0.41999999 19
5.349 2.9159999 0.54100001 16
5.6890001 3.1070001 0.67699999 17
6.0770001 3.326 0.83200002 15
6.5689998 3.605 1.0190001 13
7.1129999 3.9159999 1.234 16
5.039 2.7939999 0.41999999 19
5.3379998 2.9630001 0.54000002 15
5.691 3.1630001 0.67799997 17
6.0739999 3.3829999 0.833 16
0 0 0 50
7.118 3.9879999 1.237 25
5.0279999 2.836 0.419 18
5.3369999 3.013 0.54000002 16
5.6820002 3.2130001 0.67699999 17
6.0669999 3.437 0.833 14
6.5999999 3.7490001 1.028 24
7.1040001 4.0489998 1.238 35
0 6.1440001 0 0
0 0 0 0
0 0 0 0
0 0 0 255
5.027 2.8829999 0.419 19
5.335 3.063 0.54100001 15
5.6700001 3.26 0.67699999 17
6.066 3.4949999 0.83499998 15
6.579 3.8010001 1.027 35
7.0809999 4.1040001 1.2359999 38
5.027 2.9319999 0.419 18
5.329 3.1110001 0.54100001 16
5.6700001 3.3139999 0.67799997 16
6.0630002 3.5510001 0.83600003 15
6.5580001 3.8510001 1.026 40
7.0279999 4.1399999 1.23 29
5.0170002 2.974 0.419 18
5.3239999 3.158 0.54100001 16
5.6620002 3.3629999 0.67900002 15
6.059 3.6059999 0.838 14
6.5339999 3.8989999 1.025 33
7.066 4.2290001 1.24 17
5.0159998 3.02 0.41999999 18
5.3239999 3.2079999 0.542 15
5.664 3.418 0.68099999 15
6.059 3.6630001 0.83999997 14
6.5310001 3.9579999 1.027 23
7.1059999 4.3210001 1.252 12
5.013 3.0650001 0.41999999 17
5.3249998 3.2579999 0.54400003 16
5.6680002 3.473 0.68300003 14
6.0640001 3.723 0.84299999 14
6.5500002 4.0320001 1.034 17
7.1160002 4.3940001 1.257 12
5.02 3.1159999 0.42199999 15
5.3319998 3.312 0.546 16
5.6669998 3.5250001 0.685 15
6.0679998 3.7820001 0.847 13
6.579 4.1100001 1.0420001 14
7.1370001 4.473 1.266 12
5.0139999 3.1570001 0.42300001 15
5.3270001 3.3570001 0.54699999 15
5.6719999 3.579 0.68800002 16
6.0799999 3.8440001 0.85100001 15
6.6059999 4.1869998 1.05 26
7.1539998 4.5489998 1.274 14
5.0139999 3.2030001 0.42399999 15
5.3270001 3.405 0.54900002 17
5.6729999 3.631 0.69099998 17
6.099 3.911 0.85799998 22
6.6139998 4.2519999 1.0549999 38
7.1529999 4.612 1.278 14
5.0250001 3.2550001 0.42699999 17
5.323 3.45 0.551 16
5.6810002 3.6860001 0.69499999 16
6.1009998 3.9660001 0.861 31
6.5900002 4.2950001 1.056 40
7.1849999 4.698 1.29 14
5.0229998 3.2969999 0.42899999 16
5.335 3.5039999 0.55500001 16
5.6830001 3.737 0.69800001 16
6.0929999 4.0139999 0.86400002 38
6.585 4.349 1.0599999 30
7.2020001 4.7719998 1.299 14
5.0250001 3.3410001 0.43099999 16
5.3330002 3.5480001 0.55800003 17
5.6939998 3.793 0.70300001 16
6.085 4.0609999 0.86699998 41
6.579 4.402 1.064 23
7.2270002 4.8499999 1.309 14
5.0370002 3.391 0.435 15
5.3390002 3.5969999 0.56099999 15
5.698 3.8429999 0.70700002 17
6.0830002 4.1100001 0.87099999 32
6.6139998 4.4809999 1.075 17
7.2490001 4.927 1.319 15
5.0419998 3.4360001 0.43799999 16
5.3449998 3.6440001 0.565 15
5.7049999 3.8940001 0.71200001 14
6.1009998 4.1729999 0.87800002 21
6.652 4.5609999 1.087 14
7.2750001 5.0050001 1.331 14
5.046 3.4779999 0.44100001 16
5.3470001 3.688 0.56900001 15
5.7129998 3.9449999 0.71700001 15
6.132 4.243 0.88800001 14
6.671 4.6279998 1.095 14
7.3010001 5.0819998 1.3430001 13
5.0549998 3.5239999 0.44499999 16
5.3610001 3.7390001 0.574 15
0 0 0 50
6.165 4.3140001 0.898 18
6.6919999 4.6950002 1.105 14
7.3280001 5.158 1.355 13
5.0549998 3.562 0.44800001 16
5.3649998 3.7820001 0.57800001 15
5.7420001 4.053 0.72899997 21
6.1810002 4.3709998 0.90499997 24
6.7179999 4.7639999 1.1160001 14
7.3460002 5.2259998 1.365 14
0 6.1440001 0 0
0 0 0 0
0 0 0 0
0 0 0 255
5.059 3.6010001 0.45199999 15
5.3730001 3.8269999 0.583 15
5.756 4.1040001 0.73500001 33
6.1950002 4.4260001 0.912 35
6.7399998 4.8280001 1.126 14
7.3769999 5.303 1.3789999 13
5.0650001 3.6400001 0.456 15
5.388 3.875 0.58899999 15
5.7600002 4.1479998 0.741 43
6.1890001 4.4660001 0.91799998 40
6.7719998 4.8990002 1.137 14
7.402 5.3730001 1.391 13
5.072 3.6789999 0.46000001 15
5.395 3.9159999 0.59399998 14
5.7529998 4.1810002 0.745 46
6.1890001 4.507 0.92299998 38
6.7839999 4.954 1.147 14
7.4310002 5.4439998 1.405 12
5.0819998 3.7190001 0.465 16
0 0 0 50
5.7659998 4.2280002 0.75199997 38
6.1960001 4.552 0.93000001 25
6.8249998 5.0279999 1.16 14
7.467 5.52 1.42 13
5.0939999 3.7579999 0.47 15
5.421 4.0019999 0.60500002 14
5.7680001 4.2639999 0.75700003 26
6.2280002 4.6129999 0.94099998 17
6.8449998 5.085 1.171 14
7.4959998 5.5869999 1.434 13
5.0949998 3.7880001 0.47400001 14
5.4330001 4.0419998 0.611 14
5.7969999 4.3189998 0.76599997 16
6.2750001 4.6849999 0.954 14
6.8779998 5.1490002 1.184 14
7.5289998 5.6570001 1.449 12
5.1110001 3.8280001 0.47999999 15
5.4400001 4.0770001 0.61699998 14
5.8309999 4.3759999 0.77600002 13
6.2989998 4.737 0.96499997 14
6.8969998 5.2020001 1.1950001 14
7.5710001 5.73 1.465 12
5.1220002 3.862 0.48500001 15
5.4710002 4.1279998 0.62599999 15
5.8520002 4.421 0.78500003 16
6.3189998 4.7839999 0.97399998 14
6.927 5.2600002 1.207 14
7.6009998 5.7919998 1.48 13
5.1279998 3.8900001 0.49000001 15
5.487 4.165 0.63200003 19
0 0 0 50
6.3400002 4.8299999 0.98400003 15
6.9640002 5.3210001 1.221 15
7.6339998 5.8540001 1.495 14
5.1360002 3.9170001 0.495 17
5.5120001 4.2080002 0.63999999 26
5.9000001 4.5110002 0.80299997 30
6.3660002 4.8769999 0.99400002 16
6.9879999 5.369 1.233 15
7.678 5.921 1.512 14
5.1539998 3.951 0.50199997 15
5.5229998 4.237 0.64600003 34
5.9060001 4.5370002 0.80900002 41
6.3979998 4.927 1.005 15
7.02 5.4219999 1.2460001 15
7.7150002 5.9809999 1.528 14
5.1690001 3.98 0.50800002 15
5.526 4.2579999 0.65200001 39
5.9109998 4.5619998 0.81599998 44
6.421 4.9660001 1.015 15
7.0549998 5.473 1.2589999 15
7.7490001 6.0349998 1.543 14
5.1810002 4.0040002 0.51300001 14
5.5289998 4.277 0.65700001 38
5.9200001 4.586 0.82200003 44
0 0 0 50
7.0830002 5.5170002 1.271 15
7.783 6.086 1.558 14
5.1939998 4.0279999 0.51899999 15
5.5370002 4.2969999 0.66299999 39
5.9239998 4.6040001 0.82800001 40
6.473 5.0430002 1.036 15
7.112 5.5580001 1.284 14
7.8239999 6.138 1.574 14
5.2049999 4.0469999 0.52399999 13
5.552 4.3200002 0.67000002 37
5.9439998 4.6329999 0.83600003 30
6.4910002 5.0710001 1.045 15
7.1469998 5.6009998 1.2970001 14
7.8540001 6.1799998 1.5880001 13
5.2210002 4.0679998 0.52999997 14
5.559 4.335 0.67500001 32
5.9640002 4.658 0.84399998 25
6.5159998 5.1020002 1.0549999 15
7.1690001 5.631 1.307 14
7.8979998 6.2290001 1.605 12
0 6.1440001 0 0
0 0 0 0
0 0 0 0
0 0 0 255
5.237 4.086 0.53600001 13
5.5770001 4.3559999 0.68199998 27
5.9889998 4.6849999 0.85299999 19
6.5409999 5.1300001 1.064 15
7.1919999 5.658 1.318 15
7.927 6.2620001 1.619 12
5.2480001 4.098 0.54100001 13
5.586 4.3670001 0.68800002 23
6.0149999 4.71 0.861 16
6.5650001 5.1539998 1.074 15
7.2210002 5.6880002 1.33 14
7.9689999 6.302 1.6339999 12
5.2600002 4.1090002 0.54699999 14
5.6040001 4.3829999 0.69400001 19
6.0419998 4.7329998 0.87 15
6.586 5.1729999 1.082 15
7.2410002 5.7059999 1.339 14
8.0010004 6.3299999 1.647 13
5.27 4.1160002 0.55199999 14
5.6220002 4.3959999 0.69999999 16
6.0630002 4.7490001 0.87800002 15
6.605 5.1869998 1.09 15
7.2750001 5.7319999 1.351 13
8.0179996 6.3429999 1.6569999 13
5.289 4.1279998 0.55699998 13
5.645 4.4099998 0.70700002 16
6.0819998 4.7600002 0.884 15
6.6290002 5.2010002 1.099 15
7.2880001 5.7379999 1.359 14
8.0550003 6.368 1.67 13
5.296 4.1269999 0.56099999 15
5.6539998 4.4109998 0.71200001 15
6.0999999 4.7680001 0.89099997 15
6.6550002 5.2150002 1.107 16
7.3130002 5.75 1.368 15
8.0790005 6.3779998 1.6799999 12
5.3070002 4.1269999 0.56599998 14
5.6739998 4.4180002 0.71799999 14
6.1170001 4.7709999 0.89700001 15
6.6609998 5.21 1.113 16
7.3390002 5.7589998 1.377 14
8.1079998 6.3889999 1.6900001 11
5.3239999 4.1300001 0.57099998 14
5.6830001 4.4130001 0.722 14
6.1350002 4.7729998 0.903 15
6.684 5.2140002 1.12 15
7.3600001 5.7620001 1.385 15
8.1350002 6.395 1.7 11
5.3299999 4.1209998 0.574 13
5.697 4.4099998 0.727 15
6.1459999 4.7670002 0.90799999 16
6.697 5.2080002 1.125 15
7.3730001 5.7540002 1.39 15
8.1499996 6.3870001 1.707 13
5.3379998 4.112 0.57700002 14
5.7080002 4.402 0.73000002 16
6.1599998 4.7600002 0.912 15
6.71 5.1989999 1.13 16
7.3930001 5.7480001 1.397 15
8.1709995 6.3800001 1.714 13
5.3460002 4.0999999 0.57999998 15
5.7150002 4.3889999 0.73400003 15
6.1609998 4.7399998 0.91399997 15
6.724 5.1880002 1.1339999 16
7.4070001 5.7350001 1.402 15
8.1940002 6.3709998 1.721 11
5.3600001 4.0910001 0.583 12
5.7189999 4.3699999 0.736 15
6.1750002 4.7280002 0.91799998 13
6.7379999 5.1729999 1.1390001 14
7.4190001 5.7160001 1.406 14
8.1990004 6.3439999 1.724 13
5.3649998 4.073 0.58600003 12
5.7189999 4.3470001 0.73699999 17
6.1799998 4.7059999 0.92000002 13
6.7389998 5.1469998 1.14 14
7.428 5.6929998 1.409 13
8.2010002 6.3109999 1.725 13
5.369 4.052 0.58700001 14
5.7220001 4.3239999 0.73900002 20
6.1789999 4.678 0.921 14
6.7519999 5.1259999 1.143 14
7.4390001 5.6669998 1.411 14
8.2159996 6.2849998 1.729 13
5.375 4.0289998 0.58899999 16
5.73 4.302 0.741 24
6.178 4.6469998 0.92199999 15
6.7579999 5.0970001 1.1440001 15
7.4400001 5.632 1.411 13
8.2259998 6.2529998 1.7309999 13
5.382 4.0079999 0.58999997 14
5.7340002 4.2750001 0.74199998 29
6.1680002 4.6069999 0.92000002 21
6.7620001 5.0650001 1.145 14
7.4489999 5.599 1.4119999 14
8.2299995 6.2119999 1.73 12
0 6.1440001 0 0
0 0 0 0
0 0 0 0
0 0 0 255
5.382 3.977 0.59100002 14
5.744 4.25 0.74299997 33
6.1690001 4.573 0.92000002 26
6.7600002 5.026 1.1440001 15
7.4439998 5.553 1.41 15
8.2299995 6.165 1.728 14
5.388 3.9489999 0.59100002 14
5.7529998 4.223 0.74400002 38
6.171 4.5380001 0.92000002 31
6.757 4.9829998 1.142 15
7.4439998 5.5079999 1.409 15
8.2139997 6.1030002 1.723 14
5.3899999 3.9170001 0.59100002 14
5.756 4.1890001 0.74299997 41
6.1729999 4.5009999 0.91900003 41
6.7540002 4.9380002 1.14 16
7.441 5.4590001 1.406 15
8.2110004 6.0479999 1.719 15
5.3940001 3.885 0.59100002 15
5.7620001 4.1550002 0.74299997 42
6.1900001 4.473 0.92000002 43
6.7550001 4.8940001 1.138 15
7.4369998 5.4070001 1.402 15
8.1940002 5.9809999 1.712 16
5.3969998 3.8499999 0.58999997 15
5.783 4.1300001 0.74400002 34
6.1999998 4.4369998 0.91900003 40
6.7480001 4.842 1.1339999 15
7.4320002 5.3499999 1.398 15
8.1750002 5.9099998 1.704 16
5.3860002 3.8039999 0.58700001 14
5.7820001 4.0890002 0.74199998 28
6.2140002 4.4029999 0.91900003 31
6.7319999 4.7820001 1.128 15
7.4180002 5.2870002 1.391 15
8.1739998 5.8499999 1.699 16
5.3940001 3.77 0.58700001 14
5.7709999 4.0380001 0.73900002 19
6.21 4.3540001 0.91500002 25
6.7249999 4.7280002 1.124 15
7.4099998 5.2259998 1.386 15
8.158 5.776 1.6900001 16
5.3829999 3.7219999 0.583 16
5.7589998 3.9860001 0.73400003 16
6.1950002 4.296 0.91000003 18
6.7090001 4.665 1.117 15
7.3850002 5.151 1.376 15
8.1289997 5.6929998 1.678 16
5.3850002 3.681 0.58099997 16
5.7459998 3.9319999 0.73000002 15
6.1750002 4.2340002 0.90399998 17
6.6919999 4.5999999 1.11 15
7.3779998 5.0879998 1.369 16
8.1040001 5.6100001 1.666 16
5.3800001 3.635 0.57800001 16
5.7490001 3.8889999 0.727 16
6.1430001 4.1630001 0.89499998 21
6.6789999 4.5370002 1.103 15
7.3579998 5.0139999 1.36 16
8.0769997 5.526 1.653 15
5.3769999 3.589 0.57499999 17
5.7399998 3.836 0.72299999 15
6.1269999 4.1009998 0.889 34
6.645 4.4590001 1.092 18
7.3369999 4.9380002 1.35 17
8.0469999 5.4359999 1.64 16
5.369 3.539 0.57099998 14
5.7290001 3.78 0.71799999 16
6.125 4.0489998 0.884 45
6.6059999 4.3769999 1.081 29
7.3070002 4.8559999 1.3380001 17
8.0240002 5.3520002 1.627 16
5.362 3.4890001 0.56699997 15
5.7179999 3.724 0.71200001 15
6.138 4.0040002 0.88099998 44
6.6030002 4.3179998 1.074 41
7.2779999 4.7740002 1.325 17
7.9920001 5.2610002 1.612 14
5.3559999 3.4389999 0.56300002 14
5.7080002 3.6689999 0.70700002 14
6.138 3.951 0.87599999 31
6.6220002 4.2729998 1.071 38
7.2550001 4.6939998 1.314 15
7.96 5.1690001 1.597 15
5.3499999 3.388 0.55800003 14
5.7030001 3.6159999 0.70200002 15
6.1149998 3.8829999 0.86699998 19
6.6230001 4.2140002 1.0650001 29
7.223 4.6079998 1.301 15
7.928 5.0760002 1.582 14
5.348 3.339 0.55400002 14
5.6919999 3.5569999 0.69599998 14
6.0960002 3.816 0.85900003 13
6.5939999 4.1360002 1.054 20
7.1999998 4.5279999 1.289 15
7.8889999 4.9790001 1.5650001 15
0 6.1440001 0 0
0 0 0 0
0 0 0 0
0 0 0 255
5.3400002 3.286 0.54900002 14
5.6729999 3.494 0.68800002 14
6.079 3.75 0.85100001 14
6.5500002 4.0489998 1.04 15
7.1609998 4.4390001 1.274 15
7.8470001 4.8800001 1.5470001 15
5.3249998 3.2290001 0.54299998 13
5.6620002 3.4360001 0.68199998 13
6.0669999 3.687 0.84299999 14
6.5040002 3.961 1.026 26
7.1360002 4.3569999 1.261 15
7.8179998 4.789 1.531 15
5.3140001 3.1730001 0.53799999 14
5.652 3.378 0.67500001 15
6.0479999 3.619 0.83399999 15
6.4879999 3.8900001 1.016 42
7.073 4.2519999 1.2410001 22
7.7750001 4.6880002 1.513 16
5.309 3.122 0.53200001 14
5.6409998 3.319 0.66900003 16
6.0320001 3.5539999 0.82599998 15
6.5040002 3.8380001 1.011 38
7.0240002 4.1560001 1.224 38
7.7410002 4.5929999 1.4960001 15
5.2940001 3.0639999 0.52600002 15
5.6259999 3.2579999 0.66100001 16
6.0209999 3.49 0.81800002 15
6.5019999 3.777 1.003 26
7.0469999 4.1020002 1.219 43
7.6869998 4.4879999 1.475 15
5.2800002 3.007 0.51999998 15
5.6129999 3.198 0.65399998 16
5.9990001 3.421 0.80800003 16
6.4559999 3.688 0.98900002 18
7.0320001 4.026 1.2079999 34
7.6409998 4.388 1.456 15
5.256 2.944 0.51200002 17
5.599 3.1370001 0.64700001 15
5.9790001 3.3540001 0.79900002 15
6.421 3.6070001 0.97600001 15
6.9899998 3.9360001 1.191 20
7.6040001 4.2930002 1.438 15
5.2519999 2.892 0.50700003 17
5.585 3.0769999 0.639 15
5.9640002 3.289 0.79000002 14
6.4060001 3.5369999 0.96499997 17
6.9169998 3.8269999 1.17 24
7.5560002 4.1919999 1.418 16
5.237 2.835 0.5 16
5.5700002 3.016 0.63099998 16
5.9460001 3.221 0.78100002 16
6.3769999 3.46 0.95300001 16
6.8860002 3.743 1.155 40
7.4780002 4.0749998 1.393 23
5.2150002 2.773 0.493 16
5.5570002 2.9549999 0.62400001 16
5.9299998 3.1559999 0.77200001 15
6.3509998 3.385 0.94099998 17
6.888 3.678 1.147 48
7.4380002 3.98 1.375 45
5.2090001 2.72 0.48699999 17
5.5430002 2.895 0.616 16
5.9099998 3.089 0.76200002 17
6.3260002 3.309 0.93000001 16
6.8870001 3.6099999 1.137 27
7.4520001 3.915 1.367 51
5.1880002 2.6600001 0.47999999 17
5.5229998 2.832 0.60799998 16
5.8889999 3.0209999 0.75199997 16
6.302 3.2360001 0.91799998 16
6.8330002 3.5150001 1.119 16
7.4229999 3.826 1.35 31
5.177 2.605 0.47299999 17
5.507 2.77 0.60000002 16
5.868 2.9530001 0.74299997 16
6.2839999 3.1659999 0.90700001 17
6.7950001 3.428 1.103 16
7.342 3.7119999 1.325 21
5.1669998 2.5510001 0.46700001 17
5.4749999 2.7019999 0.58999997 19
5.8470001 2.8870001 0.73299998 16
6.2579999 3.092 0.89600003 16
6.77 3.3499999 1.09 15
7.276 3.6070001 1.302 40
5.1570001 2.497 0.461 17
5.4520001 2.6389999 0.58200002 18
5.8210001 2.8180001 0.72299999 17
6.237 3.0209999 0.88499999 18
6.7420001 3.2709999 1.076 17
7.2729998 3.5339999 1.2920001 56
5.1370001 2.438 0.45300001 16
5.4070001 2.5650001 0.57099998 15
5.8049998 2.7550001 0.71399999 15
6.2119999 2.95 0.87300003 15
6.7069998 3.1889999 1.062 14
7.2859998 3.471 1.283 34
0 6.1440001 0 0
0 0 0 0
0 0 0 0
0 0 0 255
5.1220002 2.382 0.447 15
5.4310002 2.5250001 0.56699997 15
5.783 2.6889999 0.70499998 14
6.1900001 2.8800001 0.86199999 14
6.6859999 3.1140001 1.049 16
7.2150002 3.3659999 1.261 16
5.1240001 2.335 0.442 15
5.3940001 2.457 0.55699998 15
5.7659998 2.6259999 0.69599998 15
6.1669998 2.8099999 0.85100001 15
6.6500001 3.033 1.035 16
7.1719999 3.276 1.243 15
5.098 2.2750001 0.43399999 15
5.3839998 2.401 0.551 15
5.7509999 2.5650001 0.68699998 15
6.1469998 2.7420001 0.84100002 16
6.6240001 2.957 1.022 15
7.1360002 3.1900001 1.226 14
5.0809999 2.22 0.428 14
5.3720002 2.345 0.54400003 15
5.7280002 2.4990001 0.67799997 15
6.1199999 2.671 0.829 16
6.5960002 2.881 1.0089999 16
7.0949998 3.102 1.209 15
5.0749998 2.1689999 0.42199999 16
5.3649998 2.2909999 0.537 17
5.7080002 2.437 0.66900003 15
6.0949998 2.602 0.81900001 16
6.5739999 2.8080001 0.99699998 17
7.0679998 3.0220001 1.1950001 16
5.0560002 2.1129999 0.41499999 17
5.349 2.234 0.52899998 16
5.6700001 2.3670001 0.65799999 16
6.0689998 2.533 0.80800003 16
6.5469999 2.734 0.98400003 16
7.0409999 2.9419999 1.181 16
5.0479999 2.063 0.40900001 16
