# .PCD v0.7 - Point Cloud Data file format
VERSION 0.7
FIELDS x y z intensity
SIZE 4 4 4 4
TYPE F F F F
COUNT 1 1 1 1
WIDTH 1724
HEIGHT 1
VIEWPOINT 0 0 0 1 0 0 0
POINTS 1724
DATA ascii
9.7340002 3.1099999 2.2219999 20
6.4159999 1.975 0.91600001 16
6.8699999 2.122 1.095 15
7.4359999 2.3050001 1.3099999 14
8.0640001 2.51 1.558 15
8.8990002 2.783 1.873 33
9.7130003 3.053 2.214 29
6.4050002 1.939 0.91299999 15
6.8720002 2.086 1.094 16
7.4299998 2.2639999 1.308 14
8.059 2.4660001 1.5549999 15
8.8920002 2.733 1.869 26
9.7069998 2.9990001 2.2090001 37
6.4070001 1.905 0.912 15
6.8600001 2.046 1.09 15
7.4330001 2.2249999 1.3049999 15
8.0539999 2.421 1.552 15
8.8590002 2.675 1.858 17
9.7360001 2.9549999 2.2119999 37
6.401 1.869 0.90899998 15
6.8509998 2.007 1.086 16
7.4200001 2.181 1.3 15
8.04 2.3729999 1.546 15
8.8199997 2.615 1.847 15
9.7709999 2.911 2.2160001 35
6.3920002 1.83 0.90499997 14
6.8499999 1.9680001 1.084 15
7.4070001 2.135 1.295 15
8.0319996 2.3239999 1.541 14
8.8140001 2.563 1.842 15
9.7670002 2.8529999 2.2090001 27
6.3829999 1.7920001 0.90200001 15
6.8400002 1.925 1.079 15
7.3930001 2.0880001 1.29 16
8.0150003 2.273 1.533 15
8.7840004 2.5020001 1.83 14
9.6929998 2.7750001 2.187 19
0 6.1440001 0 0
0 0 0 0
0 0 0 0
0 0 0 255
6.3769999 1.753 0.898 15
6.829 1.883 1.074 16
7.3839998 2.043 1.285 16
8.0039997 2.223 1.527 17
8.7799997 2.4489999 1.825 15
9.5830002 2.6860001 2.1570001 23
6.3660002 1.712 0.89399999 15
6.8189998 1.839 1.069 17
7.3670001 1.994 1.278 15
7.9910002 2.171 1.52 15
8.7519999 2.388 1.814 15
9.5600004 2.6210001 2.1459999 34
6.368 1.674 0.89099997 17
6.8060002 1.794 1.064 16
7.3499999 1.944 1.27 16
7.9720001 2.1170001 1.512 17
8.7329998 2.3280001 1.804 15
9.5810003 2.566 2.1429999 39
6.3530002 1.631 0.88599998 17
6.7909999 1.748 1.057 16
7.3330002 1.8940001 1.263 15
7.9590001 2.063 1.5039999 16
8.7119999 2.2679999 1.794 15
9.6020002 2.5109999 2.142 36
6.3379998 1.5880001 0.88 17
6.7849998 1.705 1.053 16
7.3189998 1.844 1.256 15
7.934 2.007 1.494 17
8.684 2.2049999 1.7819999 14
9.5769997 2.4430001 2.1289999 24
6.3280001 1.545 0.875 18
6.7690001 1.658 1.046 16
7.3010001 1.793 1.248 15
7.9169998 1.951 1.4859999 17
8.6549997 2.142 1.77 14
9.4919996 2.359 2.1029999 16
6.3179998 1.503 0.87 19
6.7519999 1.61 1.039 16
7.2789998 1.74 1.24 16
7.8870001 1.892 1.474 17
8.6230001 2.0769999 1.757 15
9.46 2.2880001 2.0880001 15
6.289 1.455 0.86199999 18
6.7329998 1.561 1.0319999 16
7.2589998 1.688 1.2309999 17
7.8660002 1.835 1.465 15
8.5979996 2.0139999 1.745 15
9.4219999 2.2160001 2.072 15
6.2849998 1.413 0.85699999 17
6.7199998 1.5140001 1.025 17
7.237 1.635 1.222 16
7.8470001 1.779 1.455 17
8.5810003 1.952 1.735 16
9.3800001 2.1429999 2.0550001 15
6.2789998 1.37 0.852 19
6.7049999 1.466 1.018 17
7.2129998 1.581 1.2130001 16
7.8169999 1.72 1.444 18
8.5450001 1.886 1.721 16
9.3409996 2.0699999 2.039 15
6.2529998 1.322 0.84399998 17
6.6859999 1.416 1.011 17
7.1900001 1.527 1.204 17
7.7950001 1.661 1.433 17
8.5150003 1.8200001 1.7079999 16
9.3109999 1.998 2.0239999 15
6.2470002 1.278 0.83899999 17
6.6750002 1.368 1.0039999 17
7.1680002 1.473 1.1950001 17
7.7579999 1.599 1.421 18
8.4700003 1.751 1.692 15
9.2659998 1.9220001 2.006 15
6.23 1.232 0.83200002 18
6.6589999 1.319 0.99699998 17
7.1389999 1.4170001 1.184 16
7.7249999 1.538 1.408 17
8.4540005 1.688 1.681 16
9.2320004 1.85 1.9910001 15
6.2220001 1.187 0.82700002 17
6.6459999 1.27 0.99000001 18
7.1199999 1.364 1.176 17
7.6950002 1.478 1.397 18
8.4180002 1.6210001 1.6670001 16
9.1890001 1.775 1.973 15
6.2069998 1.141 0.82099998 16
6.6290002 1.221 0.98199999 16
7.0999999 1.3099999 1.1670001 16
7.6690001 1.418 1.386 17
8.3760004 1.553 1.652 15
9.1599998 1.704 1.959 14
6.1999998 1.096 0.815 16
6.5970001 1.168 0.97299999 15
7.0780001 1.255 1.158 16
7.6500001 1.359 1.376 18
8.3529997 1.488 1.64 15
9.1280003 1.631 1.944 14
0 6.1440001 0 0
0 0 0 0
0 0 0 0
0 0 0 255
6.1739998 1.0470001 0.80699998 15
6.5929999 1.12 0.96700001 16
7.053 1.2 1.148 17
7.6160002 1.298 1.363 17
8.3129997 1.421 1.625 14
9.0909996 1.558 1.928 14
6.165 1.002 0.80199999 16
6.5669999 1.069 0.958 19
7.0419998 1.147 1.141 16
7.5949998 1.24 1.354 16
8.2840004 1.355 1.612 16
9.0410004 1.483 1.909 14
6.1490002 0.95599997 0.79500002 16
6.5500002 1.018 0.95099998 15
7.0170002 1.092 1.131 17
7.5640001 1.179 1.342 16
8.2559996 1.29 1.6 15
9.0059996 1.41 1.8940001 14
6.1300001 0.90799999 0.78799999 15
6.5430002 0.97000003 0.94499999 18
6.9990001 1.038 1.123 17
7.552 1.122 1.334 17
8.2189999 1.223 1.586 17
8.9700003 1.337 1.8789999 15
6.1269999 0.86299998 0.78299999 16
6.5229998 0.91900003 0.93699998 15
6.9809999 0.98400003 1.115 15
7.5229998 1.061 1.323 18
8.1960001 1.158 1.575 18
8.934 1.2640001 1.863 14
6.1100001 0.81599998 0.77700001 16
6.507 0.86900002 0.93000001 15
6.96 0.93000001 1.1059999 16
7.5009999 1.003 1.313 18
8.1680002 1.0930001 1.563 17
8.8909998 1.192 1.847 14
6.0949998 0.76899999 0.77100003 16
6.4590001 0.815 0.91900003 16
6.947 0.87599999 1.099 17
7.4819999 0.94400001 1.304 18
8.1330004 1.026 1.549 18
8.8710003 1.1210001 1.836 15
6.0799999 0.722 0.76499999 17
6.4390001 0.764 0.91100001 16
6.9229999 0.82099998 1.09 16
7.4569998 0.884 1.294 18
8.1190004 0.963 1.54 17
8.8339996 1.048 1.821 16
6.0760002 0.676 0.75999999 16
6.4530001 0.71700001 0.90899998 17
6.915 0.76800001 1.084 17
7.4390001 0.82599998 1.285 17
8.0819998 0.89700001 1.527 19
8.7930002 0.97600001 1.8049999 16
6.0619998 0.62900001 0.75400001 16
6.4359999 0.667 0.90200001 18
6.895 0.71399999 1.076 16
7.4109998 0.76599997 1.275 17
8.0609999 0.833 1.517 18
8.7639999 0.90499997 1.793 16
6.0599999 0.583 0.75 16
6.427 0.61699998 0.89600003 17
6.8759999 0.65899998 1.068 16
7.3969998 0.708 1.267 18
8.0360003 0.76899999 1.507 19
8.7449999 0.83600003 1.7819999 17
6.0469999 0.537 0.745 17
6.4229999 0.56900001 0.89200002 16
6.862 0.60600001 1.062 16
7.3829999 0.64999998 1.26 17
8.0150003 0.70499998 1.497 19
8.7040005 0.764 1.767 16
6.0359998 0.49000001 0.74000001 17
6.401 0.51800001 0.88499999 18
6.8520002 0.55199999 1.056 17
7.3649998 0.59200001 1.252 18
7.9959998 0.64099997 1.488 18
8.6859999 0.69400001 1.758 18
6.02 0.44299999 0.73500001 16
6.3930001 0.46900001 0.88 17
6.8400002 0.5 1.05 17
7.3559999 0.53500003 1.2460001 18
7.9720001 0.57700002 1.479 18
8.6560001 0.62400001 1.7460001 17
6.0110002 0.39700001 0.73000002 17
6.3920002 0.41999999 0.87599999 17
6.8260002 0.44600001 1.043 16
7.3369999 0.477 1.238 18
7.9559999 0.514 1.471 19
8.6379995 0.55599999 1.737 18
5.9949999 0.34999999 0.72500002 17
6.3720002 0.37 0.87 18
6.8109999 0.39199999 1.0369999 16
7.323 0.419 1.232 18
7.9349999 0.45100001 1.462 18
8.6099997 0.486 1.726 19
0 6.1440001 0 0
0 0 0 0
0 0 0 0
0 0 0 255
5.9920001 0.30399999 0.722 18
6.3709998 0.32100001 0.86699998 16
6.8060002 0.34 1.033 15
7.3080001 0.36199999 1.225 17
7.9219999 0.389 1.456 17
8.5900002 0.41800001 1.717 17
5.9790001 0.259 0.71700001 15
6.3569999 0.271 0.86199999 15
6.8000002 0.287 1.029 15
7.2989998 0.30500001 1.22 16
7.915 0.32600001 1.45 16
8.5699997 0.34900001 1.709 17
5.9780002 0.212 0.71499997 15
6.3559999 0.222 0.85900003 16
6.7979999 0.233 1.025 15
7.2779999 0.24600001 1.2130001 17
7.9070001 0.26300001 1.4450001 17
8.5649996 0.28099999 1.7029999 16
5.9689999 0.16599999 0.71100003 15
6.3439999 0.17200001 0.85399997 16
6.7839999 0.18099999 1.02 15
7.263 0.189 1.2079999 16
7.8920002 0.2 1.438 16
8.5509996 0.212 1.697 17
5.9679999 0.119 0.708 16
6.336 0.123 0.85100001 17
6.7740002 0.127 1.016 15
7.2550001 0.131 1.2029999 17
7.882 0.13699999 1.433 18
8.5369997 0.14300001 1.6900001 16
5.9689999 0.072999999 0.70599997 16
6.3369999 0.072999999 0.84899998 16
6.7690001 0.074000001 1.013 15
7.2529998 0.074000001 1.2 16
7.8699999 0.074000001 1.428 17
8.5349998 0.075000003 1.687 17
5.9619999 0.026000001 0.704 16
6.3299999 0.023 0.84600002 17
6.7340002 0.02 1.005 16
7.244 0.016000001 1.196 16
7.8670001 0.011 1.425 17
8.5299997 0.0049999999 1.683 16
5.9580002 -0.018999999 0.70099998 16
6.3280001 -0.026000001 0.84399998 16
6.7690001 -0.033 1.008 15
7.2449999 -0.041000001 1.194 16
7.8509998 -0.050999999 1.42 17
8.5179996 -0.061999999 1.678 16
5.9689999 -0.066 0.70099998 17
6.3249998 -0.075999998 0.84100002 16
6.756 -0.086000003 1.005 15
7.244 -0.098999999 1.192 16
7.848 -0.114 1.4170001 16
8.5209999 -0.131 1.676 15
5.9619999 -0.113 0.699 15
6.3270001 -0.126 0.83999997 16
6.7350001 -0.14 1 16
7.2399998 -0.15700001 1.1900001 17
7.8579998 -0.178 1.4170001 17
8.5179996 -0.20100001 1.674 16
5.9580002 -0.161 0.69700003 15
6.3189998 -0.176 0.838 16
6.7329998 -0.19400001 0.99900001 17
7.2360001 -0.215 1.188 17
7.8629999 -0.242 1.4170001 16
8.5159998 -0.271 1.6720001 17
5.961 -0.208 0.69700003 18
6.3299999 -0.227 0.838 15
6.7410002 -0.248 0.99900001 16
7.2420001 -0.27399999 1.188 17
7.8600001 -0.30599999 1.415 17
8.5190001 -0.34099999 1.671 16
5.9489999 -0.255 0.69499999 33
6.3270001 -0.278 0.83700001 16
6.7670002 -0.30399999 1.002 15
7.2519999 -0.333 1.189 18
7.8629999 -0.37 1.415 17
8.5240002 -0.41 1.6720001 15
5.9569998 -0.303 0.69499999 35
6.329 -0.32800001 0.83700001 15
6.743 -0.35699999 0.99800003 16
7.2470002 -0.39199999 1.188 16
7.8699999 -0.435 1.416 18
8.5290003 -0.48100001 1.6720001 16
5.9580002 -0.35100001 0.69499999 34
6.3169999 -0.37799999 0.83499998 21
6.7659998 -0.41299999 1.001 15
7.2600002 -0.45100001 1.1900001 16
7.8769999 -0.49900001 1.4170001 17
8.5430002 -0.55199999 1.675 16
5.9780002 -0.40000001 0.69700003 26
6.3340001 -0.43099999 0.83700001 37
6.7470002 -0.46599999 0.99900001 17
7.2610002 -0.51099998 1.1900001 16
7.882 -0.56400001 1.418 18
8.5480003 -0.62300003 1.677 16
0 6.1440001 0 0
0 0 0 0
0 0 0 0
0 0 0 255
5.974 -0.447 0.69700003 14
6.3429999 -0.48199999 0.83899999 37
6.7930002 -0.52499998 1.006 15
7.2779999 -0.57099998 1.193 16
7.9060001 -0.63099998 1.423 17
8.566 -0.69499999 1.681 16
5.993 -0.49700001 0.699 16
6.3590002 -0.53500003 0.84200001 37
6.7779999 -0.579 1.0039999 23
7.2950001 -0.63300002 1.197 16
7.9109998 -0.69700003 1.425 17
8.5909996 -0.76899999 1.687 17
5.9970002 -0.546 0.70099998 15
6.3779998 -0.58899999 0.84500003 17
6.789 -0.63499999 1.007 22
7.3060002 -0.69400001 1.2 17
7.9320002 -0.76499999 1.431 17
8.6079998 -0.84299999 1.692 15
6.0139999 -0.59600002 0.70300001 16
6.3800001 -0.64099997 0.84600002 16
6.7919998 -0.69099998 1.008 19
7.323 -0.75599998 1.204 18
7.9499998 -0.83200002 1.436 17
8.6300001 -0.91600001 1.699 16
6.0229998 -0.64600003 0.70499998 17
6.3860002 -0.69300002 0.84799999 16
6.8299999 -0.75099999 1.015 15
7.3369999 -0.81800002 1.2079999 16
7.9720001 -0.90100002 1.442 16
8.6619997 -0.99299997 1.7079999 15
6.0250001 -0.69599998 0.70700002 15
6.3969998 -0.74800003 0.85100001 16
6.8429999 -0.81 1.0190001 15
7.3540001 -0.88099998 1.2130001 16
7.9889998 -0.97000003 1.447 16
8.6890001 -1.0700001 1.716 15
6.0469999 -0.74800003 0.71100003 15
6.4219999 -0.80299997 0.85600001 15
6.8579998 -0.86799997 1.024 15
7.375 -0.94599998 1.219 17
8.0240002 -1.0420001 1.457 17
8.717 -1.147 1.725 13
6.039 -0.796 0.71200001 14
6.434 -0.85799998 0.86000001 15
6.881 -0.92900002 1.03 16
7.395 -1.01 1.225 17
8.04 -1.112 1.4630001 15
8.7550001 -1.226 1.737 14
6.066 -0.85000002 0.71700001 16
6.4520001 -0.91399997 0.86500001 13
6.8920002 -0.98699999 1.034 15
7.421 -1.075 1.233 16
8.0710001 -1.184 1.472 16
8.7930002 -1.307 1.748 13
6.0900002 -0.90399998 0.72299999 14
6.4679999 -0.97000003 0.87 13
6.9159999 -1.049 1.041 15
7.4460001 -1.142 1.24 17
8.1049995 -1.257 1.483 16
8.8249998 -1.387 1.7589999 13
6.099 -0.95499998 0.72600001 14
6.4840002 -1.026 0.875 13
6.9390001 -1.11 1.0470001 15
7.4770002 -1.21 1.249 16
8.1260004 -1.33 1.4910001 15
8.8249998 -1.462 1.765 24
6.1160002 -1.0089999 0.73100001 14
6.5019999 -1.0829999 0.88 13
6.9569998 -1.171 1.054 14
7.5009999 -1.277 1.258 16
8.1700001 -1.4069999 1.5039999 16
8.9090004 -1.553 1.7869999 31
6.132 -1.063 0.736 14
6.5339999 -1.1440001 0.88800001 14
6.9889998 -1.2359999 1.062 14
7.5370002 -1.347 1.268 16
8.2119999 -1.485 1.517 16
8.9499998 -1.637 1.801 25
6.1500001 -1.117 0.741 14
6.5580001 -1.2029999 0.89499998 14
7.0110002 -1.299 1.0700001 15
7.5739999 -1.418 1.279 15
8.2449999 -1.561 1.528 14
9.0039997 -1.725 1.819 13
6.165 -1.171 0.74699998 14
6.5689998 -1.26 0.90100002 13
7.046 -1.3660001 1.08 13
7.598 -1.488 1.289 15
8.2889996 -1.641 1.543 15
9.0509996 -1.813 1.835 12
6.1880002 -1.229 0.75300002 14
6.592 -1.321 0.90799999 13
7.066 -1.4299999 1.0880001 13
7.6360002 -1.561 1.301 15
8.3310003 -1.722 1.557 13
9.1059999 -1.903 1.854 12
0 6.1440001 0 0
0 0 0 0
0 0 0 0
0 0 0 255
6.217 -1.286 0.76099998 15
6.618 -1.382 0.91600001 13
7.0929999 -1.495 1.097 14
7.664 -1.632 1.311 15
8.3850002 -1.804 1.574 13
9.1610003 -1.993 1.873 12
6.2290001 -1.34 0.76599997 15
6.652 -1.4450001 0.92500001 13
7.1240001 -1.562 1.107 13
7.7010002 -1.706 1.324 15
8.4449997 -1.89 1.592 14
9.2309999 -2.089 1.896 12
6.2519999 -1.398 0.773 14
6.6719999 -1.506 0.93300003 13
7.164 -1.632 1.119 14
7.7319999 -1.78 1.336 14
8.4879999 -1.974 1.608 12
9.2980003 -2.1860001 1.919 12
6.2779999 -1.4579999 0.78100002 15
6.704 -1.571 0.94300002 13
7.1939998 -1.702 1.13 14
7.7800002 -1.859 1.351 14
8.5240002 -2.0569999 1.623 12
9.3610001 -2.2839999 1.941 12
6.3119998 -1.5190001 0.79100001 13
6.7389998 -1.637 0.954 14
7.2259998 -1.771 1.141 13
7.829 -1.938 1.367 15
8.5939999 -2.1500001 1.645 16
9.4449997 -2.3870001 1.9680001 15
6.3379998 -1.58 0.79900002 16
6.763 -1.701 0.963 16
7.2690001 -1.845 1.155 17
7.8740001 -2.017 1.382 16
8.6540003 -2.24 1.665 16
9.5059996 -2.4860001 1.9910001 14
6.3730001 -1.643 0.80900002 15
6.7930002 -1.766 0.97299999 15
7.3099999 -1.918 1.168 16
7.9180002 -2.098 1.398 16
8.7130003 -2.332 1.686 16
9.5839996 -2.592 2.0179999 14
6.402 -1.705 0.81800002 14
6.8299999 -1.835 0.98500001 16
7.3540001 -1.994 1.182 17
7.9759998 -2.1830001 1.416 16
8.7860003 -2.4289999 1.709 15
9.6540003 -2.6960001 2.0439999 14
6.4310002 -1.768 0.82700002 15
6.8559999 -1.902 0.995 15
7.395 -2.069 1.196 16
8.0319996 -2.2679999 1.4349999 15
8.8500004 -2.5250001 1.732 15
9.7600002 -2.813 2.079 15
6.46 -1.832 0.83700001 15
6.8990002 -1.974 1.008 15
7.4450002 -2.1489999 1.212 15
8.0860004 -2.3559999 1.4529999 15
8.9280005 -2.6270001 1.758 15
9.8430004 -2.925 2.108 16
6.493 -1.898 0.84799999 15
6.9390001 -2.0450001 1.021 17
7.4949999 -2.2279999 1.229 15
8.1379995 -2.4430001 1.472 15
9.0030003 -2.7290001 1.783 15
9.9370003 -3.0420001 2.141 15
6.52 -1.962 0.85799998 14
6.9850001 -2.1199999 1.035 17
7.5430002 -2.309 1.245 16
8.2110004 -2.5369999 1.495 15
9.0769997 -2.832 1.809 15
10.031 -3.161 2.174 15
6.5580001 -2.0309999 0.86900002 14
7.0229998 -2.1919999 1.048 15
7.5929999 -2.391 1.262 19
8.2740002 -2.6289999 1.516 16
9.1610003 -2.9400001 1.837 15
10.138 -3.286 2.211 14
6.5840001 -2.096 0.88 15
7.0669999 -2.2679999 1.063 14
7.6440001 -2.4749999 1.279 14
8.349 -2.727 1.54 15
9.2329998 -3.0450001 1.864 15
10.244 -3.4130001 2.2479999 15
6.6230001 -2.1659999 0.89200002 15
7.118 -2.346 1.0779999 14
7.697 -2.559 1.2970001 16
8.4139996 -2.823 1.562 15
9.316 -3.1559999 1.892 15
10.35 -3.5420001 2.2850001 13
6.6599998 -2.2360001 0.90399998 13
7.1680002 -2.4260001 1.094 13
7.7550001 -2.6470001 1.316 14
8.4910002 -2.925 1.5880001 14
9.3970003 -3.2679999 1.9220001 17
10.458 -3.674 2.3239999 13
0 6.1440001 0 0
0 0 0 0
0 0 0 0
0 0 0 255
6.6939998 -2.306 0.91600001 15
7.2160001 -2.5050001 1.11 14
7.8179998 -2.7379999 1.336 13
8.5670004 -3.027 1.613 14
9.4890003 -3.3859999 1.9529999 15
10.59 -3.816 2.369 12
6.7379999 -2.3800001 0.93000001 14
7.2589998 -2.5840001 1.125 12
7.8829999 -2.8299999 1.357 13
8.6370001 -3.1289999 1.637 14
9.6040001 -3.5120001 1.99 14
10.722 -3.96 2.414 13
6.7810001 -2.4530001 0.94300002 14
7.3169999 -2.6689999 1.142 12
7.9419999 -2.921 1.377 13
8.7209997 -3.2360001 1.665 14
9.6960001 -3.632 2.023 13
10.862 -4.1090002 2.461 11
6.8179998 -2.526 0.95599997 15
7.3670001 -2.7509999 1.159 14
8.0089998 -3.0150001 1.399 14
8.8050003 -3.345 1.693 13
9.7880001 -3.7539999 2.056 14
10.977 -4.2509999 2.5039999 11
6.8699999 -2.605 0.97100002 13
7.4089999 -2.832 1.175 13
8.0690002 -3.1099999 1.42 14
8.8870001 -3.4549999 1.72 14
9.8999996 -3.8859999 2.0929999 13
11.111 -4.4039998 2.5510001 9
6.9099998 -2.6800001 0.98500001 15
7.4660001 -2.9189999 1.193 13
8.1479998 -3.2119999 1.444 14
8.967 -3.566 1.748 13
10.009 -4.0180001 2.131 12
11.247 -4.5599999 2.599 10
6.9640002 -2.7620001 1.001 14
7.5240002 -3.007 1.211 13
8.2180004 -3.312 1.467 13
9.0509996 -3.6800001 1.777 13
10.102 -4.145 2.165 14
11.397 -4.723 2.651 12
7.0040002 -2.839 1.015 17
7.5830002 -3.0969999 1.23 15
8.2910004 -3.414 1.4910001 15
9.1239996 -3.7909999 1.804 14
10.219 -4.2849998 2.2049999 13
11.56 -4.895 2.707 12
7.0549998 -2.921 1.03 16
7.6430001 -3.188 1.249 15
8.3699999 -3.52 1.516 15
9.2329998 -3.9170001 1.8380001 15
10.333 -4.4239998 2.2449999 11
11.706 -5.0619998 2.7590001 12
7.1040001 -3.003 1.046 17
7.7010002 -3.28 1.2690001 15
8.4420004 -3.625 1.54 15
9.3140001 -4.0339999 1.867 15
10.463 -4.5739999 2.2880001 11
11.879 -5.243 2.819 13
7.1529999 -3.085 1.061 14
7.7639999 -3.3740001 1.289 15
8.5089998 -3.7279999 1.564 14
9.4139996 -4.1599998 1.9 15
10.58 -4.7179999 2.3299999 11
12.06 -5.4310002 2.8800001 13
7.1989999 -3.1670001 1.077 16
7.8210001 -3.467 1.308 16
8.5860004 -3.836 1.589 15
9.5 -4.2820001 1.9299999 14
10.711 -4.8720002 2.3740001 12
12.252 -5.6269999 2.944 14
7.2470002 -3.2509999 1.092 14
7.888 -3.5650001 1.329 15
8.6730003 -3.951 1.6160001 15
9.5869999 -4.4050002 1.962 15
10.834 -5.0229998 2.4170001 12
12.411 -5.8099999 3.0020001 12
7.2950001 -3.335 1.108 16
7.9510002 -3.661 1.349 15
8.743 -4.0580001 1.64 15
9.7019997 -4.5419998 1.998 12
10.952 -5.1750002 2.4590001 12
12.623 -6.0209999 3.073 15
7.349 -3.4219999 1.125 14
8.0229998 -3.7639999 1.3710001 15
8.8059998 -4.164 1.664 13
9.7860003 -4.6669998 2.029 11
11.079 -5.3309999 2.503 12
12.802 -6.2189999 3.135 16
7.4000001 -3.5090001 1.141 15
8.0830002 -3.8610001 1.39 14
8.8769999 -4.2729998 1.688 13
9.8640003 -4.789 2.0580001 10
11.231 -5.5019999 2.553 13
12.973 -6.4169998 3.197 16
0 6.1440001 0 0
0 0 0 0
0 0 0 0
0 0 0 255
7.454 -3.5969999 1.1569999 14
8.1450005 -3.9590001 1.411 14
8.9650002 -4.3930001 1.716 14
9.9770002 -4.9289999 2.095 10
11.367 -5.6669998 2.6010001 13
13.167 -6.6269999 3.2639999 15
7.5040002 -3.684 1.173 13
8.2069998 -4.0580001 1.431 14
9.0469999 -4.5089998 1.743 13
10.08 -5.066 2.1289999 10
11.505 -5.8340001 2.648 14
13.378 -6.849 3.336 14
7.5619998 -3.776 1.191 13
8.2729998 -4.1609998 1.452 13
9.118 -4.6220002 1.768 12
10.151 -5.1890001 2.158 10
11.651 -6.0079999 2.697 14
13.597 -7.079 3.4100001 17
7.6160002 -3.8670001 1.207 13
8.3360004 -4.2620001 1.473 14
9.1680002 -4.723 1.789 12
10.266 -5.3330002 2.1949999 11
11.809 -6.1880002 2.7490001 15
13.794 -7.296 3.4779999 16
7.665 -3.954 1.223 13
8.3929996 -4.3590002 1.492 15
9.257 -4.8449998 1.817 11
10.347 -5.46 2.224 11
11.951 -6.3610001 2.7969999 15
14.029 -7.5380001 3.5569999 15
7.7140002 -4.0419998 1.238 13
8.4709997 -4.4689999 1.515 14
9.3369999 -4.9629998 1.842 12
10.458 -5.6040001 2.2609999 11
12.117 -6.5500002 2.8510001 15
14.284 -7.7930002 3.6389999 20
7.7729998 -4.1350002 1.255 14
8.5389996 -4.5739999 1.535 13
9.3879995 -5.066 1.863 10
10.54 -5.7340002 2.29 12
12.255 -6.724 2.8989999 15
14.497 -8.0279999 3.7130001 18
7.8249998 -4.224 1.271 13
8.5699997 -4.6570001 1.549 13
9.4589996 -5.1789999 1.887 9
10.635 -5.869 2.323 12
12.389 -6.8969998 2.9449999 16
14.831 -8.3319998 3.8169999 23
7.8730001 -4.3109999 1.285 13
8.6339998 -4.7589998 1.569 12
9.533 -5.2940001 1.911 10
10.725 -6.0029998 2.3540001 12
12.521 -7.0679998 2.9909999 15
14.775 -8.4160004 3.8199999 56
7.9169998 -4.3959999 1.299 17
8.6890001 -4.8569999 1.587 14
9.6040001 -5.4060001 1.934 11
10.831 -6.1440001 2.388 15
12.661 -7.243 3.0369999 18
14.751 -8.5150003 3.829 64
7.9559999 -4.4759998 1.312 15
8.7299995 -4.9450002 1.602 14
9.6780005 -5.5209999 1.9579999 11
10.916 -6.2750001 2.4170001 12
12.801 -7.421 3.0829999 18
14.702 -8.599 3.8329999 63
7.994 -4.5570002 1.324 15
8.7910004 -5.0440001 1.62 14
9.7349997 -5.625 1.977 12
11.017 -6.414 2.4489999 15
12.917 -7.5819998 3.1240001 20
14.674 -8.6890001 3.8399999 65
8.0340004 -4.638 1.337 15
8.835 -5.132 1.635 14
9.79 -5.7270002 1.9960001 12
11.108 -6.5469999 2.4790001 14
13.077 -7.77 3.175 22
14.576 -8.7370005 3.829 14
8.073 -4.717 1.349 15
8.8710003 -5.2150002 1.647 14
9.8479996 -5.8299999 2.016 11
11.194 -6.6760001 2.507 16
13.32 -8.007 3.244 23
14.448 -8.7609997 3.8080001 15
8.1160002 -4.7969999 1.3609999 15
8.915 -5.302 1.661 14
9.9020004 -5.928 2.033 12
11.281 -6.803 2.5339999 16
13.432 -8.165 3.2820001 24
14.331 -8.7860003 3.7880001 19
8.1490002 -4.8709998 1.37 16
8.9639997 -5.3899999 1.675 13
9.9619999 -6.0300002 2.052 12
11.373 -6.934 2.562 15
13.537 -8.3170004 3.316 25
14.429 -8.941 3.8239999 25
0 6.1440001 0 0
0 0 0 0
0 0 0 0
0 0 0 255
8.1780005 -4.941 1.3789999 15
8.9879999 -5.4619999 1.6849999 14
10.011 -6.1230001 2.0680001 13
11.451 -7.053 2.5869999 16
13.554 -8.4130001 3.3299999 24
14.326 -8.967 3.8069999 25
8.2069998 -5.0089998 1.387 15
9.0290003 -5.5419998 1.696 14
10.056 -6.211 2.082 13
11.52 -7.1659999 2.609 18
13.518 -8.4720001 3.3269999 21
14.485 -9.1529999 3.858 28
8.2399998 -5.0780001 1.396 15
9.0649996 -5.618 1.706 13
10.098 -6.2979999 2.095 13
11.574 -7.2670002 2.6259999 18
13.5 -8.5389996 3.3299999 17
0 0 0 0
8.2609997 -5.1389999 1.402 15
9.0819998 -5.6799998 1.7130001 13
10.129 -6.3730001 2.1040001 13
11.625 -7.3629999 2.642 18
13.434 -8.5710001 3.319 14
0 0 0 0
8.2779999 -5.1939998 1.4069999 15
9.1070004 -5.744 1.72 12
10.165 -6.4489999 2.115 13
11.643 -7.4349999 2.648 18
13.347 -8.5839996 3.302 14
15.254 -9.8870001 4.0799999 30
8.2980003 -5.25 1.411 15
9.1020002 -5.7880001 1.72 10
10.188 -6.5159998 2.1210001 12
11.659 -7.5040002 2.655 18
13.269 -8.6000004 3.2850001 15
15.3 -9.9919996 4.0970001 29
8.2910004 -5.2859998 1.411 14
9.1120005 -5.8379998 1.723 10
10.21 -6.5780001 2.1270001 14
11.667 -7.5630002 2.658 19
13.205 -8.6190004 3.27 14
15.31 -10.068 4.1020002 31
8.2969999 -5.3280001 1.4119999 14
9.1289997 -5.8909998 1.726 11
10.252 -6.651 2.1359999 14
11.682 -7.6240001 2.6619999 19
13.141 -8.6330004 3.256 14
15.309 -10.132 4.1030002 30
8.3070002 -5.3699999 1.413 14
9.1260004 -5.927 1.726 10
10.267 -6.7030001 2.138 14
11.679 -7.6690001 2.661 19
13.082 -8.6459999 3.24 16
15.248 -10.149 4.086 30
8.3059998 -5.402 1.4119999 14
9.1300001 -5.9650002 1.725 10
10.262 -6.7379999 2.1370001 14
11.657 -7.697 2.655 19
13.045 -8.6669998 3.23 16
15.241 -10.197 4.0819998 30
8.3100004 -5.4349999 1.4119999 14
9.1269999 -5.994 1.723 10
10.248 -6.7639999 2.131 14
11.647 -7.7290001 2.651 19
12.992 -8.6739998 3.214 17
15.178 -10.202 4.0619998 30
8.3009996 -5.4569998 1.4069999 16
9.125 -6.0219998 1.72 12
10.231 -6.7839999 2.125 15
11.625 -7.7490001 2.642 20
12.968 -8.6949997 3.204 17
15.074 -10.174 4.0300002 31
8.2889996 -5.473 1.403 16
9.118 -6.0440001 1.716 13
10.219 -6.8039999 2.119 15
11.582 -7.75 2.628 20
12.945 -8.7119999 3.194 14
15.034 -10.182 4.013 31
8.2770004 -5.487 1.398 16
9.0909996 -6.0479999 1.707 11
10.189 -6.8070002 2.109 15
11.553 -7.756 2.6170001 20
12.912 -8.7159996 3.1800001 15
15.01 -10.194 4 31
8.2659998 -5.4980001 1.392 16
9.0699997 -6.053 1.699 12
10.166 -6.8119998 2.099 15
11.511 -7.7490001 2.6010001 18
12.902 -8.7309999 3.171 15
14.989 -10.204 3.9860001 31
8.2519999 -5.5040002 1.385 16
9.0480003 -6.0539999 1.6900001 11
10.126 -6.8010001 2.085 15
11.462 -7.7329998 2.5840001 18
12.885 -8.7360001 3.1589999 18
14.942 -10.189 3.964 31
0 6.1440001 0 0
0 0 0 0
0 0 0 0
0 0 0 255
8.2200003 -5.494 1.375 16
9.0290003 -6.053 1.681 11
10.1 -6.7950001 2.0739999 15
11.43 -7.723 2.569 17
12.87 -8.7379999 3.1470001 20
14.785 -10.092 3.9119999 31
8.2069998 -5.4949999 1.368 15
8.9960003 -6.039 1.669 11
10.05 -6.77 2.0569999 15
11.356 -7.6799998 2.5439999 18
12.867 -8.7419996 3.1359999 19
14.706 -10.044 3.8789999 30
8.177 -5.4809999 1.357 15
8.9589996 -6.0190001 1.655 11
10.01 -6.7470002 2.0409999 14
11.312 -7.6529999 2.526 19
12.862 -8.7399998 3.125 19
14.573 -9.9519997 3.832 29
8.1459999 -5.4619999 1.346 16
8.9189997 -5.994 1.641 11
9.9650002 -6.7160001 2.0239999 14
11.251 -7.6100001 2.5020001 17
12.855 -8.7309999 3.112 18
14.454 -9.8640003 3.7869999 29
8.1230001 -5.4460001 1.336 15
8.8859997 -5.9699998 1.628 11
9.9119997 -6.677 2.0039999 12
11.188 -7.5619998 2.4779999 18
12.838 -8.7110004 3.096 17
14.356 -9.7849998 3.747 29
8.0839996 -5.415 1.322 15
8.868 -5.9510002 1.617 13
9.8579998 -6.6329999 1.985 14
11.116 -7.5019999 2.4519999 18
12.793 -8.6660004 3.072 20
14.244 -9.6899996 3.7030001 29
8.0450001 -5.3829999 1.309 15
8.816 -5.908 1.599 13
9.7980003 -6.5809999 1.9630001 14
11.044 -7.4380002 2.425 18
12.764 -8.6280003 3.052 23
14.093 -9.5640001 3.6489999 28
8.0109997 -5.3499999 1.296 16
8.7670002 -5.8629999 1.582 14
9.7410002 -6.527 1.942 14
10.978 -7.375 2.3989999 18
12.677 -8.5439997 3.017 23
0 0 0 0
7.9699998 -5.309 1.2819999 15
8.7250004 -5.8189998 1.566 14
9.6719999 -6.4619999 1.918 15
10.896 -7.2969999 2.3699999 18
12.574 -8.4460001 2.9779999 23
0 0 0 0
7.9159999 -5.257 1.265 15
8.6780005 -5.7680001 1.548 16
9.6160002 -6.402 1.897 13
10.812 -7.2140002 2.339 17
12.453 -8.3319998 2.9349999 21
13.545 -9.0930004 3.4590001 26
7.8699999 -5.2080002 1.25 15
8.6260004 -5.7119999 1.53 16
9.5310001 -6.3200002 1.87 13
10.724 -7.125 2.3080001 17
12.347 -8.2229996 2.8959999 22
13.431 -8.974 3.4130001 25
7.8270001 -5.1570001 1.235 15
8.5740004 -5.6529999 1.512 16
9.4490004 -6.2360001 1.8430001 12
10.646 -7.039 2.279 17
12.246 -8.1149998 2.8570001 21
13.161 -8.7469997 3.3269999 20
7.7849998 -5.105 1.22 16
8.5200005 -5.5890002 1.493 16
9.3800001 -6.158 1.819 11
10.566 -6.948 2.2490001 16
12.111 -7.98 2.8099999 20
13.112 -8.6619997 3.2980001 18
7.7420001 -5.0500002 1.205 16
8.4580002 -5.5170002 1.473 14
9.3059998 -6.0749998 1.794 11
10.469 -6.842 2.2160001 15
11.996 -7.855 2.7679999 19
13.153 -8.6330004 3.29 14
7.7030001 -4.9949999 1.191 15
8.4139996 -5.4549999 1.455 13
9.2390003 -5.9920001 1.77 11
10.392 -6.7480001 2.187 14
11.881 -7.7270002 2.727 18
13.22 -8.6169996 3.289 14
7.6539998 -4.9310002 1.175 15
8.3520002 -5.3790002 1.4349999 15
9.1709995 -5.908 1.7460001 11
10.252 -6.6100001 2.145 14
11.771 -7.599 2.6860001 18
13.294 -8.6000004 3.29 14
0 6.1440001 0 0
0 0 0 0
0 0 0 0
0 0 0 255
7.599 -4.862 1.158 15
8.302 -5.3080001 1.418 15
9.0939999 -5.8150001 1.721 11
10.155 -6.4970002 2.112 14
11.665 -7.473 2.6470001 17
13.349 -8.566 3.2850001 15
7.5539999 -4.7969999 1.1440001 15
8.2469997 -5.2319999 1.399 15
9.0290003 -5.7280002 1.698 11
10.066 -6.388 2.0810001 13
11.565 -7.3470001 2.6099999 17
13.322 -8.4759998 3.2609999 15
7.506 -4.7280002 1.128 15
8.1999998 -5.1599998 1.382 15
8.9790001 -5.6490002 1.678 13
9.9790001 -6.2789998 2.0510001 13
11.438 -7.2010002 2.566 16
13.209 -8.3280001 3.2149999 20
7.4590001 -4.658 1.113 16
8.1450005 -5.0799999 1.364 16
8.9040003 -5.5500002 1.654 13
9.8889999 -6.164 2.02 13
11.288 -7.04 2.5179999 16
13.087 -8.1719999 3.168 20
7.4159999 -4.5879998 1.099 16
8.0769997 -4.9910002 1.3430001 16
8.8389997 -5.4569998 1.631 14
9.7950001 -6.046 1.989 12
11.164 -6.8930001 2.4760001 15
12.936 -7.9949999 3.1140001 19
7.362 -4.5110002 1.084 16
8.0209999 -4.9070001 1.326 15
8.783 -5.368 1.6109999 14
9.7220001 -5.9390001 1.9630001 12
11.03 -6.7399998 2.4330001 15
12.737 -7.7880001 3.049 18
7.3210001 -4.4400001 1.0700001 16
7.9720001 -4.8260002 1.308 15
8.7189999 -5.2719998 1.59 15
9.6309996 -5.8210001 1.933 12
10.913 -6.5949998 2.3929999 14
12.534 -7.579 2.984 16
7.2779999 -4.3670001 1.057 16
7.9190001 -4.7420001 1.2920001 16
8.6619997 -5.1799998 1.5700001 14
9.5550003 -5.71 1.9069999 11
10.792 -6.447 2.3529999 14
12.402 -7.4120002 2.937 16
7.2340002 -4.2919998 1.044 16
7.8709998 -4.6599998 1.276 16
8.6090002 -5.0900002 1.552 15
9.4790001 -5.599 1.882 12
10.696 -6.3150001 2.3210001 14
12.252 -7.2350001 2.8870001 15
7.191 -4.217 1.03 16
7.829 -4.5809999 1.262 16
8.5469999 -4.993 1.5319999 15
9.4180002 -5.4949999 1.859 13
10.588 -6.1750002 2.2850001 13
12.101 -7.0570002 2.836 15
7.1490002 -4.1420002 1.018 15
7.7800002 -4.4970002 1.247 16
8.4980001 -4.9029999 1.515 15
9.3549995 -5.3909998 1.837 13
10.499 -6.0450001 2.2539999 13
11.96 -6.8850002 2.789 13
7.1090002 -4.0669999 1.007 16
7.7259998 -4.4089999 1.2309999 17
8.448 -4.8109999 1.497 15
9.2869997 -5.2810001 1.814 15
10.41 -5.914 2.224 13
11.832 -6.7199998 2.7460001 13
7.0749998 -3.9949999 0.99599999 16
7.6760001 -4.322 1.216 17
8.3900003 -4.7140002 1.479 14
9.2180004 -5.171 1.791 16
10.321 -5.783 2.194 13
11.706 -6.5560002 2.704 15
7.0359998 -3.9189999 0.98500001 16
7.6459999 -4.2459998 1.205 19
8.3369999 -4.619 1.462 16
9.1610003 -5.0669999 1.772 15
10.236 -5.6539998 2.165 12
11.588 -6.3969998 2.6630001 14
6.9980001 -3.8429999 0.97399998 16
7.5900002 -4.1560001 1.1900001 17
8.2819996 -4.5229998 1.446 15
9.1009998 -4.961 1.752 17
10.153 -5.526 2.138 12
11.456 -6.23 2.622 13
6.974 -3.7739999 0.96600002 18
7.5580001 -4.0770001 1.1799999 16
8.2379999 -4.4330001 1.431 13
9.0389996 -4.8530002 1.732 13
10.093 -5.4109998 2.1159999 10
11.358 -6.0819998 2.5880001 11
0 6.1440001 0 0
0 0 0 0
0 0 0 0
0 0 0 255
6.9349999 -3.697 0.95599997 16
7.5170002 -3.994 1.1670001 15
8.1960001 -4.3429999 1.4170001 14
8.9890003 -4.7519999 1.714 15
10.016 -5.2859998 2.0910001 10
11.225 -5.9180002 2.5469999 11
6.9130001 -3.6289999 0.94800001 18
7.4770002 -3.9119999 1.156 15
8.1569996 -4.2540002 1.405 14
8.9460001 -4.6550002 1.699 14
9.9429998 -5.164 2.0669999 10
11.128 -5.7719998 2.5139999 11
6.8889999 -3.5580001 0.94099998 17
7.4439998 -3.832 1.146 15
8.1059999 -4.1599998 1.39 14
8.8979998 -4.5539999 1.684 14
9.8870001 -5.0510001 2.0469999 12
11.037 -5.6290002 2.4849999 11
6.8600001 -3.4860001 0.93300003 18
7.415 -3.7539999 1.137 14
8.0679998 -4.0710001 1.378 14
8.8459997 -4.4520001 1.6670001 13
9.8199997 -4.9320002 2.026 10
10.957 -5.494 2.457 10
6.8379998 -3.4159999 0.92699999 17
7.3769999 -3.6719999 1.127 15
8.0209999 -3.9790001 1.365 15
8.7980003 -4.3520002 1.652 14
9.7559996 -4.8150001 2.0050001 11
10.887 -5.3629999 2.4319999 10
6.8109999 -3.3440001 0.92000002 19
7.3470001 -3.5929999 1.119 16
7.9899998 -3.8940001 1.355 14
8.7550001 -4.2540002 1.6390001 14
9.6940002 -4.6989999 1.9859999 12
10.801 -5.2259998 2.405 10
6.8010001 -3.279 0.91500002 19
7.3179998 -3.5139999 1.1109999 17
7.9520001 -3.8050001 1.345 14
8.7139997 -4.1570001 1.626 15
9.6409998 -4.5869999 1.9680001 13
10.751 -5.105 2.3859999 10
6.7740002 -3.207 0.90899998 19
7.2880001 -3.4360001 1.103 16
7.9190001 -3.72 1.335 15
8.6689997 -4.059 1.613 16
9.5909996 -4.4790001 1.9529999 14
10.676 -4.9749999 2.3629999 10
6.756 -3.1389999 0.90399998 19
7.2600002 -3.359 1.095 18
7.888 -3.6359999 1.326 15
8.6379995 -3.9679999 1.602 15
9.54 -4.3699999 1.937 16
10.626 -4.8569999 2.345 9
6.7340002 -3.069 0.89899999 19
7.2410002 -3.286 1.09 19
7.8540001 -3.55 1.317 15
8.5900002 -3.869 1.589 16
9.4960003 -4.2649999 1.923 14
10.551 -4.7259998 2.322 9
6.7150002 -3 0.89399999 18
7.2199998 -3.21 1.084 16
7.823 -3.4649999 1.309 15
8.5539999 -3.7750001 1.579 15
9.4549999 -4.1609998 1.91 14
10.486 -4.6020002 2.302 8
6.6939998 -2.9300001 0.88999999 18
7.1950002 -3.135 1.0779999 16
7.796 -3.3829999 1.302 15
8.5190001 -3.6830001 1.569 14
9.4169998 -4.0580001 1.898 14
10.457 -4.4949999 2.2909999 10
6.6789999 -2.8629999 0.88599998 18
7.178 -3.062 1.074 17
7.77 -3.3010001 1.295 16
8.4809999 -3.589 1.558 14
9.3730001 -3.954 1.885 15
10.406 -4.3769999 2.2750001 9
6.6599998 -2.7939999 0.88300002 20
7.158 -2.9890001 1.069 18
7.7449999 -3.22 1.288 15
8.4569998 -3.5020001 1.551 15
9.3439999 -3.8559999 1.876 14
10.351 -4.2589998 2.2579999 10
6.6479998 -2.7290001 0.88 18
7.1479998 -2.9200001 1.066 17
7.7329998 -3.145 1.284 16
8.4309998 -3.414 1.544 15
9.3059998 -3.756 1.864 15
10.31 -4.1479998 2.2449999 12
6.6409998 -2.6659999 0.87800002 18
7.1290002 -2.848 1.062 18
7.7030001 -3.062 1.277 16
8.401 -3.326 1.536 15
9.2840004 -3.6619999 1.857 13
10.252 -4.0310001 2.2279999 12
0 6.1440001 0 0
0 0 0 0
0 0 0 0
0 0 0 255
6.6220002 -2.598 0.875 19
7.1170001 -2.7780001 1.059 17
7.6820002 -2.984 1.272 16
8.3839998 -3.243 1.531 15
9.2449999 -3.562 1.847 14
10.228 -3.9289999 2.22 12
6.6269999 -2.539 0.875 19
7.1040001 -2.7079999 1.056 18
7.665 -2.9070001 1.268 16
8.3570004 -3.1570001 1.524 14
9.2220001 -3.47 1.84 13
10.162 -3.8110001 2.2019999 11
6.6059999 -2.471 0.87199998 17
7.0910001 -2.638 1.054 18
7.645 -2.8299999 1.2640001 13
8.3290005 -3.0699999 1.518 14
9.1879997 -3.3729999 1.831 13
10.127 -3.704 2.1919999 11
6.6020002 -2.4089999 0.87099999 17
7.0819998 -2.5699999 1.052 16
7.625 -2.7539999 1.26 15
8.309 -2.9860001 1.513 14
9.1549997 -3.276 1.822 13
10.095 -3.599 2.1819999 12
6.5970001 -2.346 0.87 17
7.066 -2.4990001 1.049 17
7.605 -2.6760001 1.256 14
8.276 -2.898 1.505 14
9.1420002 -3.188 1.818 13
10.071 -3.4990001 2.175 11
6.5929999 -2.2839999 0.87 16
7.0560002 -2.4300001 1.0470001 16
7.592 -2.6010001 1.253 14
8.2559996 -2.8150001 1.501 16
9.1140003 -3.0940001 1.811 13
10.055 -3.4000001 2.1689999 11
6.5760002 -2.2179999 0.86799997 16
7.0409999 -2.3610001 1.045 15
7.5799999 -2.5280001 1.251 15
8.2519999 -2.7379999 1.499 14
9.0979996 -3.0050001 1.806 14
10.034 -3.3010001 2.1630001 11
6.573 -2.1570001 0.86799997 17
7.0419998 -2.2969999 1.045 16
7.572 -2.457 1.249 16
8.2349997 -2.658 1.4960001 16
9.0810003 -2.9170001 1.802 13
10.011 -3.2030001 2.1570001 12
6.5679998 -2.095 0.86799997 16
7.0279999 -2.2290001 1.044 17
7.5689998 -2.3870001 1.249 19
8.2069998 -2.5739999 1.49 14
9.0710001 -2.8310001 1.799 13
9.9750004 -3.0999999 2.148 13
6.5619998 -2.0339999 0.86799997 16
7.0180001 -2.1619999 1.0420001 18
7.552 -2.312 1.2460001 17
8.1899996 -2.494 1.487 14
9.04 -2.7390001 1.793 13
9.9399996 -2.9979999 2.1389999 12
6.5650001 -1.974 0.86900002 16
7.006 -2.0940001 1.041 18
7.5489998 -2.2420001 1.2460001 15
8.1750002 -2.415 1.484 14
9.0279999 -2.6530001 1.79 14
9.9429998 -2.908 2.1389999 12
6.5409999 -1.9069999 0.866 20
7.0040002 -2.0280001 1.041 17
7.5359998 -2.1689999 1.244 15
8.1700001 -2.3380001 1.483 15
9.0170002 -2.5669999 1.7869999 14
9.9130001 -2.809 2.131 11
6.5560002 -1.852 0.86900002 20
6.994 -1.962 1.04 17
7.527 -2.098 1.243 16
8.1549997 -2.2590001 1.4809999 16
8.9919996 -2.477 1.7819999 13
9.8920002 -2.711 2.1259999 12
6.5619998 -1.793 0.87099999 18
6.9959998 -1.898 1.0420001 18
7.5209999 -2.027 1.242 16
8.1490002 -2.1830001 1.48 16
8.9759998 -2.392 1.779 14
9.8769999 -2.618 2.1229999 12
6.559 -1.732 0.87099999 17
6.993 -1.834 1.0420001 19
7.5079999 -1.955 1.2410001 17
8.1470003 -2.108 1.48 15
8.9630003 -2.3069999 1.776 13
9.8839998 -2.53 2.1240001 12
6.5570002 -1.673 0.87199998 17
6.9819999 -1.767 1.041 17
7.5079999 -1.887 1.2410001 16
8.1359997 -2.0320001 1.478 14
8.9530001 -2.2219999 1.775 14
9.8739996 -2.437 2.122 12
0 6.1440001 0 0
0 0 0 0
0 0 0 0
0 0 0 255
6.5380001 -1.607 0.87099999 17
6.9819999 -1.704 1.0420001 17
7.5089998 -1.8200001 1.242 16
8.1260004 -1.956 1.477 15
8.96 -2.1429999 1.776 13
9.8599997 -2.345 2.119 13
6.54 -1.549 0.87199998 20
6.9809999 -1.64 1.043 17
7.506 -1.751 1.242 14
8.1280003 -1.883 1.478 13
8.9460001 -2.059 1.774 14
9.8219995 -2.2460001 2.1099999 12
6.552 -1.492 0.875 18
6.9759998 -1.576 1.043 17
7.5019999 -1.682 1.242 16
8.1300001 -1.8099999 1.479 14
8.9429998 -1.978 1.773 13
9.8260002 -2.1589999 2.1110001 13
6.539 -1.431 0.87400001 19
6.9720001 -1.513 1.043 17
7.5009999 -1.614 1.243 16
8.1330004 -1.737 1.48 15
8.9250002 -1.892 1.77 12
9.8140001 -2.0669999 2.109 11
6.5359998 -1.37 0.875 16
6.9759998 -1.451 1.045 15
7.5079999 -1.549 1.245 15
8.1239996 -1.6619999 1.479 13
8.9219999 -1.812 1.77 12
9.7869997 -1.974 2.1040001 23
6.5349998 -1.311 0.87599999 13
6.9749999 -1.387 1.046 14
7.506 -1.48 1.2460001 14
8.1169996 -1.5880001 1.479 13
8.908 -1.729 1.768 12
9.7589998 -1.88 2.098 23
6.5349998 -1.252 0.87699997 13
6.9749999 -1.324 1.0470001 14
7.5079999 -1.4119999 1.247 14
8.1059999 -1.512 1.477 14
8.9300003 -1.652 1.773 19
9.75 -1.79 2.096 12
6.5320001 -1.192 0.87800002 13
6.9720001 -1.26 1.0470001 16
7.4980001 -1.3430001 1.2460001 15
8.1000004 -1.438 1.477 14
0 0 0 0
9.75 -1.702 2.0969999 12
6.5469999 -1.136 0.88099998 15
6.9650002 -1.196 1.0470001 14
7.4879999 -1.274 1.245 16
8.0909996 -1.364 1.476 13
8.8509998 -1.479 1.7589999 24
9.743 -1.614 2.096 11
6.539 -1.076 0.88099998 15
6.9629998 -1.1339999 1.048 15
7.4840002 -1.207 1.2460001 16
8.0860004 -1.2920001 1.476 13
8.8769999 -1.405 1.7640001 13
9.7259998 -1.526 2.0929999 12
6.5240002 -1.016 0.88 17
6.961 -1.072 1.049 16
7.4780002 -1.1390001 1.2460001 16
8.0819998 -1.219 1.476 15
8.8870001 -1.327 1.767 13
9.7139997 -1.437 2.0899999 12
6.5120001 -0.95599997 0.87900001 16
6.9629998 -1.01 1.05 16
7.4770002 -1.073 1.2460001 15
8.0839996 -1.148 1.477 15
8.8579998 -1.244 1.762 13
9.7069998 -1.35 2.089 11
6.526 -0.89999998 0.88200003 18
6.967 -0.949 1.051 17
7.474 -1.006 1.247 15
8.0740004 -1.075 1.476 15
8.8570004 -1.165 1.762 13
9.6960001 -1.262 2.0880001 12
6.52 -0.84100002 0.88300002 18
6.954 -0.88499999 1.05 16
7.4660001 -0.93800002 1.2460001 16
8.0699997 -1.002 1.476 16
8.8509998 -1.085 1.762 13
9.6949997 -1.175 2.0880001 12
6.5190001 -0.78200001 0.88300002 17
6.9510002 -0.82300001 1.051 16
7.4660001 -0.87199998 1.247 16
8.0629997 -0.92900002 1.476 16
8.8450003 -1.006 1.761 14
9.6820002 -1.0880001 2.086 12
6.5100002 -0.72299999 0.88300002 16
6.9520001 -0.76099998 1.052 16
7.461 -0.80500001 1.247 17
8.0609999 -0.85799998 1.476 15
8.8299999 -0.92699999 1.7589999 14
9.6750002 -1.001 2.085 12
0 6.1440001 0 0
0 0 0 0
0 0 0 0
0 0 0 255
6.5110002 -0.66600001 0.884 17
6.9510002 -0.699 1.053 16
7.454 -0.73799998 1.2460001 16
8.0500002 -0.78500003 1.475 16
8.8290005 -0.84799999 1.7589999 14
9.6630001 -0.91500002 2.0829999 12
6.4990001 -0.60699999 0.88300002 35
6.9510002 -0.63800001 1.053 16
7.441 -0.671 1.245 17
8.0380001 -0.713 1.473 16
8.8120003 -0.76899999 1.757 15
9.6529999 -0.82999998 2.0810001 13
6.4819999 -0.54799998 0.88200003 41
6.9369998 -0.57599998 1.052 15
7.4400001 -0.60600001 1.245 16
8.0279999 -0.64200002 1.472 16
8.8100004 -0.69199997 1.757 13
9.6440001 -0.74299997 2.0799999 13
6.4860001 -0.491 0.88300002 38
6.9429998 -0.51499999 1.053 16
7.4349999 -0.54000002 1.245 18
8.0279999 -0.57099998 1.473 16
8.8039999 -0.61400002 1.756 15
9.6260004 -0.65700001 2.0769999 13
6.4770002 -0.433 0.88200003 20
6.9310002 -0.45300001 1.052 16
7.4260001 -0.47400001 1.244 18
8.0229998 -0.50099999 1.472 16
8.7810001 -0.53500003 1.752 16
9.6280003 -0.574 2.0769999 12
6.494 -0.37799999 0.88499999 17
6.9250002 -0.39199999 1.052 16
7.4299998 -0.40900001 1.2460001 19
8.0209999 -0.43000001 1.472 16
8.7799997 -0.458 1.753 15
9.6269999 -0.48899999 2.0780001 13
6.4860001 -0.31999999 0.88499999 17
0 0 0 0
7.4159999 -0.34299999 1.244 18
8.0010004 -0.359 1.469 16
8.776 -0.38100001 1.752 14
9.6090002 -0.40400001 2.0739999 13
6.4889998 -0.26300001 0.88599998 18
6.9250002 -0.271 1.053 16
7.4070001 -0.27900001 1.243 16
8.0019999 -0.289 1.47 16
8.7559996 -0.30399999 1.749 16
9.5900002 -0.31900001 2.0710001 12
6.4720001 -0.206 0.884 17
6.914 -0.20999999 1.052 16
7.402 -0.214 1.242 17
7.9949999 -0.219 1.469 17
8.7690001 -0.228 1.752 15
9.599 -0.236 2.073 13
6.4770002 -0.149 0.88499999 17
0 0 0 0
7.4000001 -0.149 1.242 17
7.9829998 -0.15000001 1.467 17
8.7410002 -0.15099999 1.747 15
9.5839996 -0.152 2.0699999 13
6.4780002 -0.093000002 0.88499999 18
6.9109998 -0.089000002 1.052 16
7.4000001 -0.085000001 1.243 17
7.9749999 -0.079999998 1.466 17
8.7460003 -0.075000003 1.748 14
9.573 -0.068999998 2.0680001 13
6.4629998 -0.035999998 0.88300002 17
6.9099998 -0.028999999 1.052 16
7.388 -0.02 1.2410001 17
7.9780002 -0.0099999998 1.467 16
8.7419996 0 1.747 16
9.5609999 0.014 2.066 13
6.4679999 0.018999999 0.884 17
6.8899999 0.029999999 1.049 18
7.3800001 0.043000001 1.24 16
7.9640002 0.057 1.464 16
8.7220001 0.075000003 1.744 15
9.5469999 0.096000001 2.063 12
6.461 0.075000003 0.884 18
6.8790002 0.090000004 1.048 18
7.369 0.107 1.238 17
7.9650002 0.127 1.465 17
8.7200003 0.15099999 1.744 15
9.5360003 0.17900001 2.0610001 12
6.4489999 0.131 0.88200003 18
0 0 0 0
7.3720002 0.171 1.239 17
7.961 0.19599999 1.464 15
8.7069998 0.227 1.7410001 16
9.533 0.26199999 2.0610001 12
6.454 0.18700001 0.88300002 17
6.881 0.20900001 1.048 16
7.3730001 0.234 1.239 17
7.948 0.264 1.462 17
8.7040005 0.301 1.7410001 17
9.5150003 0.34299999 2.0580001 13
0 6.1440001 0 0
0 0 0 0
0 0 0 0
0 0 0 255
6.4429998 0.243 0.88099998 17
6.869 0.26800001 1.0470001 16
7.3660002 0.29800001 1.238 18
7.9499998 0.33199999 1.4630001 16
8.691 0.37599999 1.739 15
9.5129995 0.42500001 2.0569999 13
6.4390001 0.29800001 0.88099998 18
6.8699999 0.32699999 1.0470001 16
7.3559999 0.361 1.237 17
7.9359999 0.40000001 1.46 17
8.684 0.44999999 1.738 16
9.5 0.50599998 2.0550001 13
6.4349999 0.354 0.88 18
6.8070002 0.38299999 1.038 17
7.3569999 0.42399999 1.237 17
7.9250002 0.46799999 1.459 17
8.6660004 0.52399999 1.734 16
9.4949999 0.588 2.0539999 13
6.4330001 0.40900001 0.88 18
6.862 0.44499999 1.046 16
7.3600001 0.48800001 1.238 17
7.9200001 0.53600001 1.4579999 17
8.6709995 0.59899998 1.7359999 15
9.4799995 0.66799998 2.052 12
6.4099998 0.463 0.87699997 18
6.816 0.50099999 1.039 17
7.3460002 0.55000001 1.2359999 16
7.9169998 0.60299999 1.457 17
8.6560001 0.67199999 1.733 15
9.4879999 0.75 2.0539999 12
6.4180002 0.51800001 0.87800002 18
6.8559999 0.56300002 1.045 16
7.342 0.61299998 1.235 18
7.908 0.671 1.456 16
8.6450005 0.745 1.7309999 15
9.4650002 0.829 2.049 12
6.4070001 0.57200003 0.87699997 17
6.8470001 0.62 1.044 16
7.3319998 0.67400002 1.233 16
7.908 0.73799998 1.456 17
8.6499996 0.81900001 1.732 14
9.4849997 0.912 2.0539999 12
6.401 0.62599999 0.87599999 17
6.836 0.67799997 1.0420001 16
7.323 0.736 1.232 16
7.901 0.80500001 1.455 16
8.6339998 0.89200002 1.73 14
9.4709997 0.99199998 2.052 12
6.3909998 0.68099999 0.87400001 18
6.8340001 0.736 1.0420001 18
7.3189998 0.79900002 1.2309999 18
7.8940001 0.87199998 1.454 18
8.6330004 0.96600002 1.73 15
9.4519997 1.071 2.0480001 14
6.3899999 0.73500001 0.87400001 20
6.8280001 0.79400003 1.041 18
7.3150001 0.86000001 1.2309999 18
7.8930001 0.93900001 1.455 18
8.6260004 1.038 1.729 17
9.4549999 1.152 2.05 14
6.381 0.78799999 0.87300003 20
6.789 0.847 1.035 20
7.3049998 0.921 1.23 18
7.8870001 1.005 1.454 18
8.6169996 1.11 1.728 15
9.4449997 1.23 2.0480001 13
6.388 0.84399998 0.87400001 19
6.802 0.90700001 1.0369999 20
7.3010001 0.98299998 1.229 18
7.8790002 1.071 1.4529999 17
8.6239996 1.1849999 1.73 15
9.4309998 1.309 2.046 13
6.3800001 0.89600003 0.87300003 20
6.789 0.96200001 1.035 20
7.2989998 1.044 1.229 18
7.8720002 1.137 1.452 16
8.6129999 1.256 1.729 14
9.4280005 1.3890001 2.0469999 13
6.3699999 0.94999999 0.87199998 19
6.7989998 1.022 1.0369999 18
7.2940001 1.105 1.229 18
7.8670001 1.2029999 1.452 17
8.618 1.33 1.73 14
9.4219999 1.469 2.0469999 12
6.3699999 1.0039999 0.87199998 19
6.7849998 1.0779999 1.035 18
7.2839999 1.166 1.228 17
7.868 1.27 1.4529999 18
8.6129999 1.403 1.73 14
9.4209995 1.548 2.0480001 13
6.3540001 1.0549999 0.87 19
6.7740002 1.133 1.034 21
7.277 1.227 1.227 17
7.8590002 1.335 1.452 17
8.6079998 1.474 1.73 14
9.4160004 1.627 2.0480001 13
0 6.1440001 0 0
0 0 0 0
0 0 0 0
0 0 0 255
6.3530002 1.109 0.87 19
6.7820001 1.191 1.036 18
7.276 1.2869999 1.227 16
7.8610001 1.402 1.4529999 17
8.5970001 1.545 1.729 14
9.3990002 1.7029999 2.046 12
6.3390002 1.159 0.86799997 18
6.776 1.247 1.035 18
7.2750001 1.348 1.228 16
7.8600001 1.4680001 1.454 17
8.6049995 1.619 1.732 14
9.3990002 1.7819999 2.0480001 12
6.3499999 1.214 0.87 20
6.7800002 1.3049999 1.036 18
7.276 1.409 1.229 16
7.8590002 1.533 1.455 16
8.6000004 1.6900001 1.733 14
9.3929996 1.86 2.0480001 12
6.3390002 1.266 0.86900002 19
6.7820001 1.362 1.038 18
7.2680001 1.469 1.229 16
7.8730001 1.602 1.459 16
8.5959997 1.762 1.734 13
9.3769999 1.936 2.0469999 13
6.3390002 1.319 0.87 19
6.7649999 1.416 1.036 17
7.27 1.531 1.23 17
7.868 1.668 1.459 16
8.6009998 1.835 1.7359999 14
9.3909998 2.0190001 2.052 12
6.3390002 1.373 0.87 19
6.7600002 1.472 1.036 17
7.2740002 1.592 1.232 17
7.8670001 1.733 1.461 16
8.5939999 1.905 1.737 13
9.3990002 2.098 2.056 12
6.3239999 1.4220001 0.86900002 18
6.756 1.527 1.036 17
7.2670002 1.651 1.232 17
7.8649998 1.7970001 1.462 15
8.5970001 1.977 1.74 13
9.3999996 2.1760001 2.059 12
6.3260002 1.475 0.87 19
6.75 1.581 1.036 17
7.2659998 1.711 1.233 15
7.8709998 1.864 1.465 15
8.592 2.0469999 1.7410001 13
9.4029999 2.2550001 2.063 12
6.3270001 1.527 0.87099999 19
6.7540002 1.637 1.038 17
7.2670002 1.771 1.235 16
7.8740001 1.9299999 1.467 15
8.5930004 2.118 1.744 13
9.4049997 2.3340001 2.066 12
6.3330002 1.581 0.87300003 19
6.7550001 1.694 1.04 16
7.2800002 1.834 1.239 16
7.875 1.995 1.47 15
8.5939999 2.1900001 1.747 13
9.4350004 2.4189999 2.076 13
6.3239999 1.63 0.87300003 18
6.7529998 1.749 1.041 17
7.283 1.895 1.242 17
7.8800001 2.0610001 1.473 16
8.6090002 2.2639999 1.753 14
9.4759998 2.507 2.089 23
6.3319998 1.684 0.87599999 21
6.7579999 1.8049999 1.044 18
7.2800002 1.9529999 1.243 16
7.8839998 2.1259999 1.477 16
8.6129999 2.335 1.757 14
9.4750004 2.5840001 2.092 34
6.3210001 1.732 0.87599999 18
6.7579999 1.86 1.046 18
7.2909999 2.0150001 1.248 18
7.8959999 2.1930001 1.482 17
8.6169996 2.4059999 1.761 15
9.4110003 2.6429999 2.082 36
6.316 1.7819999 0.87699997 20
6.7610002 1.915 1.048 19
7.296 2.075 1.251 17
7.8969998 2.257 1.485 15
8.6239996 2.4779999 1.766 14
9.3959999 2.7160001 2.0840001 27
6.3379998 1.84 0.88200003 21
6.7639999 1.97 1.051 18
7.3010001 2.1359999 1.255 16
7.9029999 2.323 1.49 15
8.6429996 2.5539999 1.774 14
9.4449997 2.806 2.099 16
6.3330002 1.888 0.88300002 16
6.7680001 2.0250001 1.054 19
7.3150001 2.198 1.26 17
7.9029999 2.3859999 1.493 15
8.6479998 2.6240001 1.78 14
9.5410004 2.9100001 2.1259999 19
0 6.1440001 0 0
0 0 0 0
0 0 0 0
0 0 0 255
6.3410001 1.941 0.88700002 17
6.7810001 2.0829999 1.059 18
7.3169999 2.256 1.2640001 15
7.9180002 2.4530001 1.5 14
8.6619997 2.697 1.7869999 14
9.5579996 2.9920001 2.1359999 31
6.3470001 1.993 0.88999999 17
6.7839999 2.138 1.063 17
7.3299999 2.319 1.27 16
7.927 2.5190001 1.506 14
8.7220001 2.7850001 1.8049999 18
9.5229998 3.0569999 2.1329999 37
6.348 2.043 0.89300001 16
6.7940001 2.194 1.068 18
7.336 2.378 1.275 14
7.9349999 2.5829999 1.512 14
8.7329998 2.8570001 1.812 32
9.4860001 3.119 2.131 30
6.3569999 2.095 0.898 16
6.8049998 2.25 1.073 18
7.3520002 2.4400001 1.281 14
7.9460001 2.6489999 1.5190001 15
8.7200003 2.921 1.8150001 43
9.5459995 3.214 2.151 16
6.3709998 2.1489999 0.903 17
6.8179998 2.3069999 1.079 17
7.3600001 2.5 1.2869999 15
7.9640002 2.717 1.527 15
8.6879997 2.977 1.814 37
9.6280003 3.316 2.177 13
6.3860002 2.2030001 0.90799999 18
6.8280001 2.3629999 1.084 17
7.3779998 2.562 1.295 14
7.98 2.783 1.536 14
8.7080002 3.05 1.825 21
9.6750002 3.4059999 2.1949999 13
6.3899999 2.2520001 0.91299999 17
6.8520002 2.4230001 1.092 17
7.3940001 2.6240001 1.303 13
7.9980001 2.849 1.545 13
8.7840004 3.1429999 1.847 15
9.6949997 3.487 2.207 12
6.4029999 2.3039999 0.91799998 17
6.8670001 2.4790001 1.099 16
7.414 2.6860001 1.312 14
8.0220003 2.9170001 1.5549999 14
8.8649998 3.2379999 1.8710001 24
9.7469997 3.579 2.227 12
6.4060001 2.352 0.92299998 16
6.8909998 2.5380001 1.108 16
7.4180002 2.7409999 1.317 14
8.0600004 2.9909999 1.569 15
8.8660002 3.3050001 1.8789999 36
9.7989998 3.671 2.2479999 12
6.4219999 2.405 0.93000001 16
6.914 2.5969999 1.117 15
7.434 2.802 1.326 14
8.1059999 3.0680001 1.585 23
8.8430004 3.362 1.882 34
9.8400002 3.7590001 2.266 12
6.4439998 2.46 0.93800002 17
6.9320002 2.654 1.125 17
7.4629998 2.8670001 1.3380001 14
8.1210003 3.132 1.595 39
8.849 3.428 1.891 24
9.8959999 3.8529999 2.289 12
6.454 2.5090001 0.94400001 15
6.948 2.71 1.133 15
7.48 2.927 1.347 13
8.1090002 3.1849999 1.6 43
8.9180002 3.5179999 1.915 15
9.9499998 3.9449999 2.3110001 11
6.4749999 2.562 0.95200002 16
6.9689999 2.766 1.142 15
7.5089998 2.99 1.359 13
8.1070004 3.2409999 1.607 33
8.9949999 3.612 1.9400001 15
10.001 4.0349998 2.3340001 12
6.5 2.6170001 0.96100003 17
6.9889998 2.8210001 1.151 14
7.5359998 3.053 1.3710001 15
8.1619997 3.319 1.625 18
9.0439997 3.694 1.96 15
