# .PCD v0.7 - Point Cloud Data file format
VERSION 0.7
FIELDS x y z intensity
SIZE 4 4 4 4
TYPE F F F F
COUNT 1 1 1 1
WIDTH 1587
HEIGHT 1
VIEWPOINT 0 0 0 1 0 0 0
POINTS 1587
DATA ascii
2.8280001 1.488 -0.45199999 20
2.4400001 1.2920001 -0.60900003 19
2.5120001 1.324 -0.57999998 16
2.5910001 1.359 -0.551 14
2.665 1.393 -0.51800001 14
2.744 1.431 -0.484 20
2.8329999 1.474 -0.44999999 22
2.441 1.277 -0.60600001 19
2.5150001 1.309 -0.57800001 16
2.589 1.3430001 -0.54699999 16
2.6670001 1.378 -0.51499999 15
2.75 1.4170001 -0.48199999 16
2.836 1.4579999 -0.447 24
2.444 1.263 -0.60399997 21
2.5209999 1.2970001 -0.57599998 16
2.596 1.33 -0.54500002 16
2.6689999 1.362 -0.51300001 16
2.7590001 1.404 -0.48100001 17
2.8399999 1.442 -0.44499999 23
2.4419999 1.245 -0.60000002 33
2.5280001 1.284 -0.57499999 16
2.6029999 1.316 -0.54400003 15
2.675 1.348 -0.51099998 16
2.763 1.388 -0.479 16
2.849 1.428 -0.44400001 21
2.4519999 1.234 -0.59899998 51
2.53 1.267 -0.57200003 17
2.608 1.301 -0.542 20
2.6860001 1.335 -0.50999999 16
2.773 1.375 -0.47799999 21
2.8540001 1.4119999 -0.442 23
2.46 1.221 -0.59799999 57
2.5339999 1.252 -0.56999999 18
2.615 1.2869999 -0.54100001 16
2.691 1.3200001 -0.50800002 14
2.7750001 1.357 -0.47499999 20
2.8629999 1.397 -0.44 22
2.4679999 1.207 -0.597 56
2.5439999 1.239 -0.56900001 17
2.6210001 1.271 -0.53899997 17
2.6949999 1.302 -0.50599998 15
2.78 1.34 -0.47299999 17
2.869 1.3789999 -0.43900001 23
2.4649999 1.188 -0.59399998 53
2.5450001 1.221 -0.56699997 17
2.6259999 1.2539999 -0.537 16
2.7 1.285 -0.505 17
2.7850001 1.322 -0.472 17
2.8759999 1.362 -0.43700001 24
2.473 1.173 -0.59299999 54
2.5469999 1.2029999 -0.56400001 45
2.6300001 1.237 -0.53600001 17
2.7030001 1.267 -0.50300002 16
2.7939999 1.306 -0.47099999 20
2.875 1.341 -0.435 22
2.477 1.1569999 -0.59100002 53
2.552 1.186 -0.56300002 53
2.6359999 1.22 -0.53399998 16
2.7119999 1.251 -0.50199997 17
2.7980001 1.2869999 -0.46900001 19
2.8840001 1.323 -0.43399999 22
2.4790001 1.138 -0.58899999 51
2.5599999 1.17 -0.56199998 52
2.641 1.202 -0.53299999 15
2.7160001 1.232 -0.5 17
2.8 1.266 -0.46700001 16
2.885 1.302 -0.43200001 22
2.4849999 1.122 -0.588 52
2.5669999 1.154 -0.56099999 49
2.645 1.184 -0.53200001 16
2.7179999 1.212 -0.49900001 16
2.8080001 1.249 -0.46599999 16
2.891 1.283 -0.43099999 22
2.4890001 1.104 -0.58700001 51
2.5680001 1.1339999 -0.55900002 48
2.645 1.163 -0.52899998 40
2.723 1.193 -0.49700001 17
2.809 1.227 -0.465 18
2.8940001 1.261 -0.42899999 23
0 6.1440001 0 0
0 0 0 0
0 0 0 0
0 0 0 255
2.493 1.086 -0.58499998 51
2.569 1.114 -0.55699998 49
2.6459999 1.143 -0.52700001 53
2.7249999 1.173 -0.49599999 18
2.8150001 1.2079999 -0.46399999 20
2.904 1.243 -0.42899999 21
2.503 1.0700001 -0.58499998 47
2.5780001 1.097 -0.55699998 49
2.654 1.125 -0.52700001 52
2.734 1.155 -0.49599999 16
2.819 1.187 -0.463 19
2.901 1.2180001 -0.42699999 22
2.507 1.051 -0.58399999 21
2.5799999 1.077 -0.55599999 49
2.6570001 1.105 -0.52600002 52
2.733 1.132 -0.493 25
2.825 1.1670001 -0.46200001 20
2.9059999 1.197 -0.426 19
2.5120001 1.033 -0.58399999 18
2.585 1.058 -0.55500001 48
2.661 1.085 -0.52499998 52
2.74 1.113 -0.493 53
2.8239999 1.1440001 -0.46000001 21
2.9100001 1.175 -0.42500001 22
2.5179999 1.0140001 -0.583 17
2.589 1.038 -0.55400002 48
2.6670001 1.0650001 -0.52399999 50
2.7460001 1.0930001 -0.493 54
2.8299999 1.123 -0.45899999 19
2.9159999 1.154 -0.42399999 23
2.5209999 0.995 -0.58200002 19
2.602 1.022 -0.55500001 19
2.671 1.045 -0.523 52
2.7460001 1.0700001 -0.491 55
2.8299999 1.099 -0.458 25
2.9200001 1.131 -0.42399999 22
2.517 0.972 -0.579 18
2.599 0.99900001 -0.55299997 15
2.674 1.023 -0.52200001 52
2.7509999 1.049 -0.49000001 54
2.835 1.077 -0.458 45
2.9230001 1.108 -0.42300001 24
2.5220001 0.95300001 -0.579 20
2.5999999 0.97799999 -0.551 14
2.678 1.002 -0.52200001 45
2.75 1.025 -0.48899999 58
2.8410001 1.056 -0.45699999 53
2.921 1.082 -0.42199999 23
2.527 0.93300003 -0.579 18
2.6010001 0.95599997 -0.55000001 14
2.6860001 0.98299998 -0.52200001 18
2.7520001 1.003 -0.48800001 51
2.8369999 1.03 -0.45500001 53
2.9289999 1.061 -0.42199999 24
2.5339999 0.91399997 -0.579 18
2.608 0.93599999 -0.55000001 14
2.681 0.958 -0.51999998 15
2.76 0.98199999 -0.48800001 54
2.8469999 1.01 -0.456 54
2.9360001 1.038 -0.42199999 56
2.5380001 0.89399999 -0.57800001 20
2.609 0.91399997 -0.54900002 14
2.688 0.93800002 -0.51999998 13
2.763 0.95999998 -0.48800001 47
2.846 0.98500001 -0.45500001 54
2.9419999 1.015 -0.42199999 65
2.5420001 0.87300003 -0.57800001 19
2.6129999 0.89300001 -0.54900002 15
2.6889999 0.91500002 -0.51899999 14
2.77 0.93900001 -0.48800001 19
2.849 0.96200001 -0.45500001 57
2.9419999 0.99000001 -0.421 58
2.5450001 0.85299999 -0.57700002 16
2.619 0.87300003 -0.54900002 14
2.694 0.89399999 -0.51899999 15
2.77 0.91500002 -0.48699999 18
2.8570001 0.94 -0.45500001 55
2.941 0.96499997 -0.41999999 61
2.546 0.83099997 -0.57700002 19
2.622 0.852 -0.54900002 15
2.691 0.87 -0.51800001 15
2.7709999 0.89200002 -0.48699999 14
2.859 0.91600001 -0.45500001 42
2.9419999 0.94 -0.41999999 61
2.5480001 0.80900002 -0.57599998 22
2.6199999 0.82800001 -0.54699999 15
2.698 0.84799999 -0.51800001 16
2.7690001 0.866 -0.486 15
2.8599999 0.89099997 -0.454 17
2.948 0.91600001 -0.41999999 57
2.5550001 0.78899997 -0.57700002 15
2.6229999 0.80599999 -0.54699999 13
2.698 0.82499999 -0.51800001 14
2.7720001 0.84299999 -0.48500001 15
2.862 0.86699998 -0.454 18
2.947 0.88999999 -0.41999999 55
0 6.1440001 0 0
0 0 0 0
0 0 0 0
0 0 0 255
2.552 0.76599997 -0.57499999 15
2.6259999 0.78399998 -0.54699999 15
2.7060001 0.80400002 -0.51800001 16
2.773 0.81999999 -0.48500001 14
2.8640001 0.84299999 -0.454 17
2.9579999 0.86699998 -0.421 28
2.559 0.74599999 -0.57599998 16
2.628 0.76099998 -0.54699999 14
2.704 0.77899998 -0.51700002 14
2.78 0.79699999 -0.486 16
2.8640001 0.81800002 -0.45300001 15
2.9530001 0.83999997 -0.41999999 21
2.553 0.722 -0.574 16
2.635 0.741 -0.54799998 15
2.704 0.75599998 -0.51700002 24
2.7809999 0.773 -0.486 14
2.8599999 0.792 -0.45300001 19
2.9560001 0.815 -0.41999999 19
2.5580001 0.70099998 -0.574 16
2.6370001 0.71799999 -0.54699999 15
2.707 0.73299998 -0.51700002 14
2.7780001 0.74800003 -0.48500001 13
2.8670001 0.76899999 -0.45300001 20
2.9519999 0.78799999 -0.419 21
2.5599999 0.67900002 -0.574 17
2.6389999 0.69499999 -0.54699999 14
2.71 0.70999998 -0.51700002 13
2.7880001 0.727 -0.486 15
2.868 0.74400002 -0.45300001 20
2.9579999 0.764 -0.41999999 21
2.5699999 0.65899998 -0.57599998 14
2.6389999 0.67199999 -0.54699999 14
2.7130001 0.68699998 -0.51700002 13
2.7920001 0.704 -0.48699999 16
2.8759999 0.72100002 -0.454 15
2.961 0.73900002 -0.41999999 20
2.5639999 0.63499999 -0.574 14
2.642 0.64999998 -0.54699999 14
2.714 0.66399997 -0.51700002 13
2.7950001 0.68000001 -0.48699999 14
2.8770001 0.69599998 -0.454 16
2.9630001 0.713 -0.421 19
2.566 0.61299998 -0.574 16
2.6459999 0.62800002 -0.54799998 14
2.7149999 0.63999999 -0.51700002 12
2.7939999 0.65499997 -0.486 16
2.872 0.66900003 -0.454 19
2.9660001 0.68800002 -0.421 24
2.5680001 0.59100002 -0.574 15
2.6459999 0.60399997 -0.54699999 13
2.72 0.61699998 -0.51800001 14
2.7909999 0.63 -0.486 14
2.8740001 0.64499998 -0.454 16
2.9679999 0.662 -0.421 24
2.5699999 0.56900001 -0.574 14
2.6470001 0.58200002 -0.54699999 13
2.714 0.59200001 -0.51599997 13
2.793 0.60600001 -0.486 14
2.8710001 0.61900002 -0.45300001 17
2.967 0.63599998 -0.421 25
2.5739999 0.54699999 -0.57499999 16
2.6429999 0.55699998 -0.546 14
2.717 0.56900001 -0.51700002 13
2.7969999 0.58200002 -0.48699999 14
2.8710001 0.59299999 -0.45300001 20
2.9630001 0.60900003 -0.421 21
2.5739999 0.52399999 -0.57499999 16
2.6500001 0.53500003 -0.54699999 14
2.7179999 0.54500002 -0.51700002 14
2.7950001 0.55699998 -0.486 14
2.8800001 0.56999999 -0.45500001 18
2.9619999 0.583 -0.421 21
2.572 0.50099999 -0.574 17
2.6500001 0.51200002 -0.54699999 16
2.724 0.52200001 -0.51800001 13
2.7980001 0.53299999 -0.48699999 13
2.8759999 0.54400003 -0.454 18
2.9630001 0.55699998 -0.421 23
2.573 0.479 -0.574 14
2.6559999 0.49000001 -0.54799998 15
2.7279999 0.49900001 -0.51899999 12
2.8050001 0.509 -0.48800001 13
2.882 0.51999998 -0.45500001 15
2.964 0.53100002 -0.421 21
2.5739999 0.456 -0.574 14
2.6530001 0.46599999 -0.54799998 14
2.73 0.47600001 -0.51899999 14
2.8010001 0.484 -0.48699999 15
2.8840001 0.495 -0.456 16
2.9660001 0.505 -0.42199999 25
2.5739999 0.43399999 -0.574 18
2.651 0.442 -0.54699999 14
2.723 0.45100001 -0.51800001 13
2.8039999 0.46000001 -0.48800001 14
2.881 0.46900001 -0.45500001 16
2.97 0.47999999 -0.42300001 25
0 6.1440001 0 0
0 0 0 0
0 0 0 0
0 0 0 255
2.572 0.41100001 -0.57300001 15
2.641 0.41800001 -0.54500002 14
2.724 0.42699999 -0.51800001 14
2.8080001 0.43599999 -0.48899999 13
2.882 0.44400001 -0.456 14
2.9690001 0.454 -0.42300001 24
2.5699999 0.38800001 -0.57300001 14
2.652 0.396 -0.54699999 15
2.7219999 0.403 -0.51800001 10
2.7980001 0.41 -0.48699999 15
2.8870001 0.419 -0.45699999 14
2.9690001 0.42699999 -0.42300001 21
2.5769999 0.366 -0.574 16
2.6500001 0.373 -0.54699999 12
2.7279999 0.38 -0.51899999 11
2.802 0.38600001 -0.48800001 13
2.8840001 0.39300001 -0.456 18
2.9760001 0.40200001 -0.42399999 32
2.582 0.34400001 -0.57499999 16
2.652 0.34999999 -0.54699999 15
2.721 0.35499999 -0.51700002 14
2.7980001 0.361 -0.48699999 13
2.8870001 0.36899999 -0.45699999 15
2.9749999 0.37599999 -0.42399999 21
2.5739999 0.32100001 -0.57300001 17
2.648 0.32600001 -0.546 22
2.7149999 0.33000001 -0.51599997 11
2.7980001 0.336 -0.48699999 13
2.8789999 0.34200001 -0.456 15
2.9719999 0.34900001 -0.42399999 24
0 0 0 0
0 0 0 0
2.707 0.30500001 -0.51499999 19
2.789 0.31099999 -0.486 12
2.868 0.31600001 -0.454 25
2.961 0.322 -0.42199999 30
2.562 0.27399999 -0.57099998 17
2.6329999 0.278 -0.54299998 14
2.7149999 0.28200001 -0.51599997 10
2.78 0.285 -0.484 14
2.859 0.289 -0.45300001 14
2.95 0.29499999 -0.421 19
2.572 0.25299999 -0.57300001 17
2.6470001 0.25600001 -0.546 13
2.7260001 0.25999999 -0.51899999 13
2.799 0.26300001 -0.48800001 13
2.8759999 0.266 -0.456 18
2.96 0.27000001 -0.42300001 27
2.5829999 0.23100001 -0.57499999 15
2.6489999 0.233 -0.54699999 12
2.7290001 0.236 -0.51899999 11
2.8050001 0.23899999 -0.48899999 12
2.8829999 0.241 -0.45699999 16
2.971 0.245 -0.42399999 20
2.5869999 0.20900001 -0.57599998 16
2.6500001 0.20999999 -0.54699999 12
2.73 0.212 -0.51899999 10
2.809 0.214 -0.49000001 12
2.8900001 0.21600001 -0.458 17
2.9790001 0.219 -0.426 16
2.5880001 0.186 -0.57599998 11
2.6530001 0.18700001 -0.54799998 12
2.7379999 0.189 -0.52100003 11
2.8110001 0.19 -0.49000001 11
2.8900001 0.191 -0.458 14
2.977 0.193 -0.426 22
2.589 0.163 -0.57599998 14
2.661 0.164 -0.54900002 13
2.7390001 0.16500001 -0.52100003 11
2.812 0.16500001 -0.49000001 11
2.8970001 0.16599999 -0.46000001 12
2.984 0.167 -0.42699999 18
2.5910001 0.141 -0.57700002 15
2.658 0.14 -0.54900002 12
2.7360001 0.14 -0.52100003 12
2.8169999 0.14 -0.491 12
2.898 0.14 -0.46000001 15
2.9820001 0.14 -0.426 20
2.5899999 0.118 -0.57700002 13
2.661 0.117 -0.54900002 12
2.7420001 0.117 -0.52200001 10
2.8180001 0.116 -0.491 12
2.8959999 0.115 -0.45899999 14
2.987 0.114 -0.42699999 19
2.5910001 0.094999999 -0.57700002 12
2.6619999 0.093000002 -0.54900002 12
2.7449999 0.092 -0.52200001 13
2.8210001 0.090999998 -0.49200001 11
2.8989999 0.089000002 -0.46000001 14
2.987 0.088 -0.42699999 16
2.589 0.071999997 -0.57599998 12
2.6659999 0.07 -0.55000001 11
2.7449999 0.068000004 -0.52200001 11
2.8210001 0.066 -0.49200001 14
2.9030001 0.064000003 -0.461 13
2.993 0.061999999 -0.428 18
0 6.1440001 0 0
0 0 0 0
0 0 0 0
0 0 0 255
2.599 0.050000001 -0.579 12
2.6670001 0.046999998 -0.55000001 11
2.7420001 0.044 -0.52200001 9
2.819 0.041000001 -0.49200001 12
2.901 0.037999999 -0.46000001 13
2.99 0.035 -0.428 17
2.5969999 0.027000001 -0.57800001 12
2.6689999 0.023 -0.551 11
2.743 0.02 -0.52200001 10
2.8180001 0.017000001 -0.491 10
2.905 0.013 -0.461 13
2.9920001 0.0089999996 -0.428 18
2.598 0.0040000002 -0.57800001 12
2.665 0 -0.55000001 12
2.753 -0.003 -0.52399999 10
2.823 -0.0070000002 -0.49200001 12
2.905 -0.012 -0.461 13
2.994 -0.016000001 -0.428 22
2.602 -0.017999999 -0.579 12
2.6700001 -0.022 -0.551 11
2.7509999 -0.027000001 -0.523 10
2.826 -0.032000002 -0.493 10
2.9059999 -0.037 -0.461 12
2.9990001 -0.043000001 -0.42899999 20
2.6010001 -0.041000001 -0.579 15
2.6760001 -0.046 -0.55199999 10
2.753 -0.050999999 -0.52399999 10
2.8310001 -0.056000002 -0.49399999 10
2.9089999 -0.061999999 -0.461 13
2.9909999 -0.068999998 -0.428 18
2.6059999 -0.063000001 -0.57999998 13
2.6689999 -0.068999998 -0.551 11
2.7590001 -0.075000003 -0.52499998 9
2.832 -0.081 -0.49399999 10
2.914 -0.088 -0.46200001 14
3.0020001 -0.094999999 -0.42899999 18
2.6010001 -0.086000003 -0.579 12
2.674 -0.092 -0.55199999 11
2.7520001 -0.098999999 -0.52399999 11
2.8369999 -0.106 -0.49399999 10
2.9200001 -0.114 -0.463 12
2.997 -0.121 -0.428 19
2.6029999 -0.109 -0.579 13
2.674 -0.116 -0.55199999 9
2.7539999 -0.123 -0.52399999 12
2.8340001 -0.131 -0.49399999 11
2.9070001 -0.139 -0.461 14
2.9979999 -0.148 -0.428 17
2.605 -0.132 -0.57999998 14
2.674 -0.139 -0.551 11
2.7520001 -0.148 -0.523 9
2.8329999 -0.156 -0.49399999 11
2.9170001 -0.16500001 -0.46200001 13
3.0009999 -0.175 -0.42899999 19
2.612 -0.155 -0.58099997 13
2.6819999 -0.163 -0.55299997 11
2.7620001 -0.17200001 -0.52499998 10
2.846 -0.182 -0.49599999 12
2.924 -0.191 -0.463 15
3.007 -0.20100001 -0.42899999 19
2.608 -0.178 -0.57999998 13
2.6889999 -0.18700001 -0.55500001 12
2.7639999 -0.19599999 -0.52499998 10
2.8399999 -0.206 -0.495 14
2.9230001 -0.21699999 -0.463 14
3.006 -0.228 -0.42899999 24
2.6010001 -0.2 -0.579 14
2.6860001 -0.20999999 -0.55400002 12
2.7590001 -0.22 -0.52399999 11
2.8369999 -0.23100001 -0.49399999 12
2.9189999 -0.242 -0.46200001 15
3.003 -0.25299999 -0.428 28
2.608 -0.22400001 -0.57999998 16
2.687 -0.234 -0.55400002 13
2.763 -0.245 -0.52499998 13
2.8380001 -0.25600001 -0.49399999 15
2.911 -0.26699999 -0.461 13
2.9949999 -0.27900001 -0.42699999 36
2.6059999 -0.24600001 -0.57999998 15
2.6830001 -0.257 -0.55299997 12
2.76 -0.26899999 -0.52399999 13
2.8210001 -0.27900001 -0.491 18
2.904 -0.292 -0.45899999 18
3.0009999 -0.30599999 -0.42699999 30
2.6010001 -0.26899999 -0.579 13
2.6700001 -0.27900001 -0.55000001 14
2.7479999 -0.292 -0.52200001 12
2.8199999 -0.30399999 -0.49000001 15
2.9159999 -0.31900001 -0.461 18
3.0150001 -0.33399999 -0.42899999 24
0 0 0 0
0 0 0 0
2.7460001 -0.31600001 -0.52100003 13
2.8399999 -0.331 -0.49399999 13
2.925 -0.345 -0.46200001 15
3.016 -0.361 -0.42899999 21
0 6.1440001 0 0
0 0 0 0
0 0 0 0
0 0 0 255
2.598 -0.31400001 -0.57800001 16
2.681 -0.32800001 -0.55199999 8
2.7639999 -0.34200001 -0.52499998 14
2.845 -0.35699999 -0.49399999 13
2.9289999 -0.37200001 -0.46200001 15
3.016 -0.38800001 -0.42899999 21
2.6129999 -0.33899999 -0.58099997 15
2.691 -0.35299999 -0.55400002 14
2.7639999 -0.36700001 -0.52499998 14
2.8440001 -0.382 -0.49399999 12
2.9349999 -0.39899999 -0.463 15
3.0239999 -0.41600001 -0.43000001 21
2.615 -0.36199999 -0.58200002 13
2.694 -0.377 -0.55500001 11
2.767 -0.39199999 -0.52499998 13
2.845 -0.40700001 -0.49399999 12
2.938 -0.42500001 -0.463 15
3.0280001 -0.44299999 -0.43000001 20
2.6199999 -0.38600001 -0.583 14
2.6919999 -0.40000001 -0.55400002 13
2.773 -0.417 -0.52600002 12
2.8469999 -0.43200001 -0.49399999 12
2.937 -0.45100001 -0.463 17
3.0280001 -0.47 -0.43000001 23
2.625 -0.41 -0.58399999 13
2.701 -0.426 -0.55599999 13
2.7750001 -0.442 -0.52600002 12
2.8510001 -0.458 -0.495 14
2.9419999 -0.47799999 -0.46399999 14
3.026 -0.49599999 -0.42899999 24
2.6259999 -0.43399999 -0.58399999 17
2.704 -0.44999999 -0.55699998 14
2.779 -0.46700001 -0.52700001 14
2.8559999 -0.484 -0.495 13
2.9430001 -0.50400001 -0.46399999 17
3.039 -0.52499998 -0.43099999 26
2.6259999 -0.45699999 -0.58399999 13
2.704 -0.47400001 -0.55699998 15
2.7809999 -0.49200001 -0.52700001 14
2.8510001 -0.509 -0.495 16
2.9430001 -0.52999997 -0.463 17
3.0380001 -0.55199999 -0.43000001 22
2.632 -0.48100001 -0.58600003 18
2.707 -0.498 -0.55699998 15
2.7809999 -0.51599997 -0.52700001 13
2.8610001 -0.53500003 -0.49599999 16
2.948 -0.55599999 -0.46399999 16
3.0380001 -0.579 -0.43000001 22
2.6300001 -0.50400001 -0.58499998 15
2.7090001 -0.523 -0.55800003 14
2.7850001 -0.54100001 -0.528 12
2.8640001 -0.56099999 -0.49700001 14
2.9530001 -0.583 -0.465 17
3.04 -0.60600001 -0.43000001 22
2.628 -0.52700001 -0.58499998 14
2.7079999 -0.546 -0.55800003 14
2.7839999 -0.56599998 -0.528 15
2.862 -0.58600003 -0.49599999 14
2.957 -0.611 -0.465 18
3.0450001 -0.634 -0.43000001 24
2.628 -0.55000001 -0.58499998 16
2.7079999 -0.56999999 -0.55800003 12
2.7869999 -0.59100002 -0.528 13
2.8610001 -0.611 -0.49599999 14
2.9579999 -0.63700002 -0.465 17
3.0439999 -0.66000003 -0.43000001 20
2.6289999 -0.57300001 -0.58499998 15
2.7119999 -0.59500003 -0.55900002 12
2.7950001 -0.61699998 -0.52999997 11
2.8740001 -0.639 -0.498 14
2.9630001 -0.66399997 -0.46599999 16
3.049 -0.68800002 -0.43099999 21
2.635 -0.597 -0.58700001 13
2.7130001 -0.61900002 -0.55900002 12
2.7920001 -0.64099997 -0.52999997 11
2.8710001 -0.66299999 -0.498 14
2.9560001 -0.68800002 -0.465 17
3.049 -0.71499997 -0.43000001 20
2.632 -0.62 -0.58700001 14
2.711 -0.64200002 -0.55900002 12
2.79 -0.66500002 -0.52899998 14
2.8710001 -0.68900001 -0.498 14
2.957 -0.71399999 -0.465 17
3.0539999 -0.74299997 -0.43099999 21
2.641 -0.64499998 -0.58899999 14
2.711 -0.66600001 -0.55900002 14
2.7950001 -0.69099998 -0.52999997 13
2.869 -0.71399999 -0.49700001 20
2.964 -0.74299997 -0.46599999 18
3.0539999 -0.77100003 -0.43099999 22
2.6400001 -0.66900003 -0.58899999 19
2.7130001 -0.69099998 -0.56 14
2.8 -0.71700001 -0.53100002 13
2.8740001 -0.741 -0.498 14
2.96 -0.76800001 -0.465 16
3.0550001 -0.79799998 -0.43099999 21
0 6.1440001 0 0
0 0 0 0
0 0 0 0
0 0 0 255
2.645 -0.69400001 -0.59100002 16
2.717 -0.71600002 -0.56099999 15
2.802 -0.74299997 -0.53200001 13
2.875 -0.76599997 -0.49900001 16
2.9690001 -0.796 -0.46700001 18
3.059 -0.82599998 -0.43200001 20
2.645 -0.71700001 -0.59100002 16
2.724 -0.74199998 -0.56300002 15
2.803 -0.76700002 -0.53299999 13
2.8789999 -0.79299998 -0.5 16
2.9679999 -0.82200003 -0.46700001 19
3.0580001 -0.852 -0.43099999 23
2.638 -0.73799998 -0.58999997 14
2.721 -0.76499999 -0.56300002 12
2.8 -0.79100001 -0.53299999 13
2.8859999 -0.81999999 -0.50099999 16
2.9719999 -0.85000002 -0.46700001 17
3.0599999 -0.88 -0.43200001 20
2.6429999 -0.76300001 -0.59200001 15
2.7249999 -0.79000002 -0.56400001 13
2.8039999 -0.81699997 -0.53399998 12
2.8800001 -0.84399998 -0.5 13
2.977 -0.87699997 -0.46799999 18
3.0699999 -0.91000003 -0.433 22
2.6429999 -0.78600001 -0.59200001 15
2.7219999 -0.81300002 -0.56400001 14
2.803 -0.84200001 -0.53399998 14
2.881 -0.86900002 -0.50099999 14
2.967 -0.89999998 -0.46700001 16
3.0699999 -0.93699998 -0.43399999 24
2.642 -0.80900002 -0.59299999 14
2.7219999 -0.83700001 -0.565 14
2.806 -0.86699998 -0.53500003 13
2.8870001 -0.89700001 -0.50300002 16
2.973 -0.92799997 -0.46900001 15
3.073 -0.96499997 -0.43399999 21
2.6429999 -0.833 -0.59399998 16
2.724 -0.86199999 -0.56599998 15
2.803 -0.88999999 -0.53500003 12
2.8840001 -0.92000002 -0.50199997 15
2.9760001 -0.95499998 -0.46900001 19
3.075 -0.99199998 -0.435 23
2.645 -0.85600001 -0.59500003 19
2.723 -0.88499999 -0.56599998 15
2.806 -0.91600001 -0.53600001 16
2.888 -0.94700003 -0.50400001 18
2.9760001 -0.98100001 -0.47 18
3.075 -1.0190001 -0.435 22
2.6389999 -0.87800002 -0.59500003 19
2.721 -0.90799999 -0.56699997 14
2.803 -0.93900001 -0.537 15
2.888 -0.972 -0.505 16
2.977 -1.007 -0.47099999 20
3.076 -1.046 -0.43599999 25
2.642 -0.90200001 -0.59600002 20
2.723 -0.93300003 -0.56800002 16
2.8080001 -0.96600002 -0.53899997 16
2.8859999 -0.99599999 -0.505 15
2.9860001 -1.036 -0.47299999 18
3.075 -1.073 -0.43700001 24
2.6489999 -0.92699999 -0.59899998 20
2.7190001 -0.95499998 -0.56800002 16
2.803 -0.98799998 -0.53799999 16
2.8859999 -1.022 -0.50599998 17
2.98 -1.0599999 -0.47299999 17
3.079 -1.1 -0.43799999 22
2.642 -0.94800001 -0.59899998 18
2.717 -0.977 -0.56900001 14
2.806 -1.013 -0.54000002 15
2.8900001 -1.0470001 -0.50700003 16
2.9849999 -1.087 -0.47400001 21
3.0799999 -1.126 -0.43900001 21
2.642 -0.97000003 -0.60000002 20
2.7249999 -1.003 -0.57200003 14
2.8080001 -1.038 -0.542 15
2.8870001 -1.071 -0.50800002 18
2.9809999 -1.11 -0.47499999 20
3.082 -1.154 -0.44 22
2.642 -0.99199998 -0.60100001 18
2.727 -1.027 -0.574 16
2.806 -1.0599999 -0.542 17
2.881 -1.0930001 -0.50800002 18
2.98 -1.135 -0.47600001 18
3.075 -1.177 -0.44 25
2.6400001 -1.0140001 -0.602 19
2.723 -1.049 -0.574 19
2.8099999 -1.086 -0.54400003 17
2.888 -1.12 -0.51099998 17
2.9860001 -1.163 -0.47799999 20
3.0799999 -1.205 -0.442 21
2.6429999 -1.038 -0.60500002 19
2.727 -1.074 -0.57700002 16
2.802 -1.1059999 -0.54400003 17
2.8859999 -1.1440001 -0.51200002 17
2.9920001 -1.1900001 -0.47999999 16
3.0829999 -1.232 -0.44299999 22
0 6.1440001 0 0
0 0 0 0
0 0 0 0
0 0 0 255
2.638 -1.058 -0.60500002 20
2.7160001 -1.092 -0.57599998 15
2.8069999 -1.132 -0.54699999 16
2.882 -1.166 -0.51200002 17
2.9849999 -1.212 -0.47999999 18
3.0829999 -1.257 -0.44499999 22
2.6389999 -1.081 -0.60699999 20
2.723 -1.118 -0.579 18
2.8010001 -1.153 -0.54699999 18
2.8800001 -1.189 -0.514 18
2.9790001 -1.234 -0.48100001 19
3.0840001 -1.283 -0.44600001 22
2.6340001 -1.101 -0.60799998 19
2.721 -1.1390001 -0.57999998 16
2.8 -1.176 -0.54900002 18
2.8829999 -1.214 -0.51599997 20
2.9809999 -1.26 -0.48300001 19
3.0810001 -1.307 -0.447 23
2.6389999 -1.125 -0.611 19
2.7149999 -1.159 -0.58099997 19
2.803 -1.2 -0.551 16
2.881 -1.237 -0.51700002 18
2.987 -1.2869999 -0.48500001 20
3.073 -1.329 -0.44800001 23
2.632 -1.143 -0.611 18
2.7119999 -1.1799999 -0.58200002 17
2.799 -1.221 -0.55199999 17
2.8789999 -1.2589999 -0.51899999 18
2.9760001 -1.306 -0.48500001 18
3.0680001 -1.351 -0.449 22
2.6300001 -1.164 -0.61299998 22
2.7119999 -1.202 -0.58399999 17
2.7939999 -1.2410001 -0.55299997 18
2.8789999 -1.2819999 -0.52100003 18
2.9790001 -1.331 -0.48800001 19
3.0680001 -1.375 -0.45100001 24
2.628 -1.184 -0.61500001 21
2.7079999 -1.222 -0.58600003 18
2.793 -1.263 -0.55500001 18
2.878 -1.304 -0.52200001 18
2.971 -1.351 -0.48899999 19
3.0710001 -1.401 -0.45300001 21
2.6270001 -1.205 -0.61699998 17
2.7079999 -1.243 -0.588 17
2.7909999 -1.284 -0.55699998 21
2.8699999 -1.323 -0.523 17
2.9749999 -1.375 -0.491 16
3.0710001 -1.424 -0.45500001 21
2.6240001 -1.224 -0.61900002 19
2.701 -1.261 -0.58899999 17
2.7869999 -1.303 -0.55900002 17
2.872 -1.346 -0.52600002 20
2.9719999 -1.396 -0.493 16
3.0710001 -1.447 -0.45699999 21
2.6229999 -1.243 -0.62099999 19
2.7049999 -1.284 -0.59299999 18
2.7820001 -1.322 -0.56 18
2.8659999 -1.365 -0.52700001 17
2.9660001 -1.416 -0.49399999 20
3.069 -1.469 -0.45899999 26
2.6229999 -1.263 -0.62400001 20
2.697 -1.3 -0.59299999 19
2.777 -1.34 -0.56199998 18
2.8699999 -1.388 -0.53100002 18
2.9660001 -1.438 -0.49700001 18
3.0680001 -1.4910001 -0.46200001 25
2.6210001 -1.2819999 -0.62599999 22
2.697 -1.3200001 -0.59600002 19
2.7809999 -1.363 -0.565 21
2.8659999 -1.4069999 -0.53299999 18
2.9660001 -1.459 -0.5 19
3.0599999 -1.5089999 -0.463 22
2.6140001 -1.298 -0.62699997 22
2.688 -1.335 -0.597 18
2.7780001 -1.381 -0.56800002 19
2.8640001 -1.426 -0.53500003 19
2.96 -1.477 -0.50099999 18
3.0539999 -1.528 -0.465 20
2.6099999 -1.3150001 -0.62900001 21
2.688 -1.354 -0.60000002 20
2.77 -1.397 -0.56900001 18
2.858 -1.443 -0.537 18
2.961 -1.498 -0.50400001 20
3.0550001 -1.549 -0.46700001 22
2.605 -1.331 -0.63099998 23
2.684 -1.3710001 -0.602 19
2.766 -1.414 -0.57099998 17
2.8540001 -1.461 -0.53899997 19
2.9530001 -1.513 -0.50599998 19
3.052 -1.568 -0.47 21
2.6029999 -1.348 -0.634 20
2.6800001 -1.387 -0.60399997 18
2.7639999 -1.432 -0.574 16
2.855 -1.48 -0.542 18
2.951 -1.5319999 -0.50800002 19
3.046 -1.585 -0.472 19
0 6.1440001 0 0
0 0 0 0
0 0 0 0
0 0 0 255
2.602 -1.365 -0.63700002 20
2.675 -1.403 -0.60600001 19
2.7620001 -1.448 -0.57599998 21
2.8499999 -1.4960001 -0.54400003 16
2.944 -1.5470001 -0.50999999 17
3.0439999 -1.602 -0.47499999 23
2.595 -1.378 -0.63800001 19
2.674 -1.419 -0.60900003 17
2.757 -1.4630001 -0.57800001 17
2.8440001 -1.51 -0.546 21
2.9419999 -1.564 -0.51300001 16
3.039 -1.619 -0.477 21
2.5899999 -1.392 -0.64099997 17
2.6719999 -1.4349999 -0.61199999 18
2.7509999 -1.477 -0.57999998 19
2.8440001 -1.528 -0.54900002 20
2.931 -1.576 -0.514 17
3.0309999 -1.632 -0.479 21
2.589 -1.4069999 -0.64399999 21
2.665 -1.447 -0.61400002 17
2.7479999 -1.492 -0.583 18
2.8340001 -1.539 -0.551 16
2.9260001 -1.59 -0.51700002 19
3.0239999 -1.645 -0.48100001 21
2.582 -1.419 -0.64499998 21
2.661 -1.461 -0.616 18
2.743 -1.505 -0.58499998 17
2.829 -1.552 -0.55299997 19
2.925 -1.6059999 -0.51999998 17
3.027 -1.663 -0.48500001 20
2.576 -1.431 -0.648 22
2.658 -1.474 -0.61900002 20
2.7379999 -1.517 -0.588 19
2.826 -1.566 -0.55599999 17
2.9200001 -1.618 -0.52200001 17
3.02 -1.675 -0.48699999 19
2.573 -1.443 -0.64999998 20
2.652 -1.485 -0.62099999 17
2.7320001 -1.528 -0.58999997 17
2.8199999 -1.577 -0.55800003 16
2.9159999 -1.631 -0.52499998 17
3.0150001 -1.687 -0.48899999 19
2.5680001 -1.4529999 -0.65200001 19
2.6429999 -1.493 -0.62199998 16
2.7320001 -1.5420001 -0.59299999 17
2.8139999 -1.587 -0.56 17
2.914 -1.643 -0.528 16
3.0090001 -1.697 -0.49200001 18
2.5650001 -1.464 -0.65499997 20
2.6429999 -1.506 -0.62599999 18
2.724 -1.55 -0.59500003 18
2.8150001 -1.6 -0.56400001 16
2.9059999 -1.652 -0.52999997 16
3.0039999 -1.7079999 -0.495 20
2.562 -1.474 -0.65799999 20
2.6389999 -1.515 -0.62800002 17
2.717 -1.558 -0.597 17
2.809 -1.609 -0.56599998 16
2.901 -1.661 -0.53200001 14
2.9949999 -1.714 -0.49599999 19
2.55 -1.479 -0.65799999 20
2.6329999 -1.523 -0.63 15
2.7149999 -1.568 -0.60000002 18
2.799 -1.614 -0.56699997 19
2.8989999 -1.671 -0.53500003 16
2.994 -1.725 -0.5 19
2.55 -1.489 -0.662 18
2.6270001 -1.53 -0.63200003 18
2.7079999 -1.574 -0.602 17
2.796 -1.623 -0.56999999 16
2.891 -1.677 -0.537 16
2.984 -1.73 -0.50099999 20
2.5439999 -1.4960001 -0.66399997 21
2.6199999 -1.536 -0.634 19
2.701 -1.58 -0.60399997 18
2.7909999 -1.63 -0.57200003 15
2.8889999 -1.6849999 -0.54000002 16
2.9849999 -1.74 -0.505 20
2.5420001 -1.503 -0.66600001 21
2.6140001 -1.541 -0.63599998 18
2.6989999 -1.587 -0.60600001 18
2.7869999 -1.636 -0.57499999 15
2.878 -1.687 -0.54100001 17
2.97 -1.74 -0.50599998 20
2.5320001 -1.505 -0.667 20
2.6129999 -1.548 -0.639 20
2.6949999 -1.5930001 -0.60900003 17
2.78 -1.6390001 -0.57700002 17
2.8759999 -1.693 -0.54400003 16
2.9660001 -1.744 -0.50800002 20
2.527 -1.51 -0.66900003 18
2.6110001 -1.554 -0.64200002 15
2.6900001 -1.597 -0.611 17
2.7709999 -1.641 -0.57800001 15
2.872 -1.697 -0.54699999 16
2.964 -1.749 -0.51099998 19
0 6.1440001 0 0
0 0 0 0
0 0 0 0
0 0 0 255
2.523 -1.5140001 -0.671 20
2.6010001 -1.554 -0.64200002 17
2.6830001 -1.598 -0.61199999 17
2.7739999 -1.648 -0.58200002 16
2.865 -1.699 -0.54799998 17
2.9590001 -1.752 -0.51300001 20
2.526 -1.52 -0.67500001 19
2.599 -1.558 -0.64499998 19
2.6789999 -1.601 -0.61400002 17
2.767 -1.649 -0.583 17
2.8629999 -1.702 -0.551 17
2.9560001 -1.7539999 -0.51599997 19
2.516 -1.52 -0.67500001 20
2.5940001 -1.5599999 -0.64600003 18
2.6719999 -1.601 -0.616 18
2.756 -1.646 -0.58399999 17
2.8540001 -1.7 -0.55199999 16
2.947 -1.752 -0.51700002 19
2.5109999 -1.52 -0.67699999 21
2.586 -1.559 -0.64700001 19
2.6730001 -1.604 -0.61799997 18
2.756 -1.649 -0.58600003 17
2.849 -1.7 -0.55400002 17
2.9430001 -1.752 -0.51899999 19
2.5079999 -1.521 -0.67900002 19
2.586 -1.561 -0.64999998 22
2.6700001 -1.605 -0.62 18
2.7460001 -1.645 -0.58700001 16
2.8429999 -1.698 -0.55500001 16
2.9330001 -1.747 -0.51999998 19
2.506 -1.522 -0.68099999 18
2.5840001 -1.561 -0.65200001 22
2.6619999 -1.601 -0.62099999 18
2.743 -1.6440001 -0.58899999 15
2.8380001 -1.6950001 -0.55699998 17
2.9330001 -1.748 -0.52200001 19
2.5 -1.5190001 -0.68099999 18
2.5799999 -1.559 -0.653 22
2.658 -1.599 -0.62199998 19
2.7420001 -1.643 -0.59100002 15
2.836 -1.694 -0.55900002 17
2.9319999 -1.7460001 -0.52399999 20
2.4949999 -1.516 -0.68199998 20
2.575 -1.556 -0.65399998 20
2.6559999 -1.597 -0.62400001 19
2.7409999 -1.641 -0.59299999 15
2.835 -1.691 -0.56099999 17
2.9260001 -1.7410001 -0.52499998 20
2.4990001 -1.518 -0.685 20
2.573 -1.554 -0.65600002 18
2.654 -1.594 -0.62599999 20
2.733 -1.635 -0.59299999 17
2.8269999 -1.684 -0.56099999 15
2.9260001 -1.737 -0.528 20
2.49 -1.51 -0.685 19
2.569 -1.549 -0.65600002 17
2.648 -1.589 -0.62599999 20
2.7320001 -1.631 -0.59500003 15
2.8269999 -1.681 -0.56300002 15
2.918 -1.729 -0.528 21
2.49 -1.507 -0.68599999 18
2.566 -1.544 -0.65799999 18
2.648 -1.585 -0.62800002 20
2.7260001 -1.623 -0.59500003 17
2.8239999 -1.675 -0.56400001 16
2.914 -1.721 -0.52899998 21
2.4849999 -1.501 -0.68599999 20
2.5639999 -1.539 -0.65799999 16
2.6459999 -1.579 -0.62900001 20
2.73 -1.6210001 -0.597 18
2.8199999 -1.6670001 -0.565 18
2.908 -1.712 -0.52899998 19
2.4809999 -1.494 -0.68699998 17
2.562 -1.533 -0.65899998 15
2.641 -1.571 -0.62900001 21
2.724 -1.612 -0.597 16
2.8150001 -1.6569999 -0.565 21
2.911 -1.707 -0.53100002 21
2.4809999 -1.489 -0.68800002 19
2.5599999 -1.526 -0.66000003 19
2.641 -1.564 -0.63 16
2.717 -1.6 -0.597 17
2.8099999 -1.647 -0.565 18
2.9070001 -1.696 -0.53100002 19
2.48 -1.482 -0.68900001 21
2.556 -1.517 -0.66000003 18
2.6400001 -1.557 -0.63099998 16
2.7179999 -1.594 -0.59799999 16
2.816 -1.643 -0.56699997 16
2.905 -1.687 -0.53200001 19
2.4790001 -1.474 -0.68900001 18
2.5550001 -1.5089999 -0.66000003 19
2.635 -1.546 -0.63 18
2.7160001 -1.584 -0.59799999 16
2.8099999 -1.63 -0.56699997 16
2.9030001 -1.676 -0.53200001 20
0 6.1440001 0 0
0 0 0 0
0 0 0 0
0 0 0 255
2.4749999 -1.464 -0.68800002 20
2.5550001 -1.5 -0.66000003 18
2.635 -1.5369999 -0.63099998 20
2.711 -1.572 -0.59799999 17
2.8080001 -1.619 -0.56699997 19
2.9000001 -1.664 -0.53200001 19
2.48 -1.459 -0.69 18
2.5569999 -1.492 -0.66100001 16
2.6400001 -1.53 -0.63200003 15
2.714 -1.563 -0.59799999 19
2.8099999 -1.61 -0.56800002 17
2.901 -1.653 -0.53299999 19
2.4749999 -1.446 -0.68900001 17
2.552 -1.48 -0.66000003 18
2.635 -1.517 -0.63099998 18
2.71 -1.551 -0.59799999 16
2.809 -1.598 -0.56800002 17
2.898 -1.64 -0.53299999 22
2.47 -1.433 -0.68699998 21
2.552 -1.469 -0.66000003 18
2.635 -1.506 -0.63099998 19
2.7149999 -1.5420001 -0.59899998 17
2.806 -1.5829999 -0.56699997 18
2.8989999 -1.627 -0.53299999 20
2.4779999 -1.427 -0.68900001 21
2.556 -1.46 -0.66100001 19
2.6340001 -1.493 -0.63 19
2.7149999 -1.529 -0.59799999 18
2.809 -1.572 -0.56699997 17
2.901 -1.614 -0.53299999 20
2.473 -1.4119999 -0.68699998 19
2.5569999 -1.448 -0.66000003 17
2.6300001 -1.479 -0.62900001 18
2.7090001 -1.512 -0.597 17
2.8039999 -1.556 -0.56599998 20
2.9000001 -1.599 -0.53200001 21
2.474 -1.4 -0.68599999 20
2.552 -1.433 -0.65799999 20
2.6340001 -1.4680001 -0.62900001 23
2.71 -1.499 -0.59600002 19
2.803 -1.541 -0.565 20
2.898 -1.584 -0.53100002 25
2.4760001 -1.3890001 -0.68599999 19
2.5510001 -1.419 -0.65700001 18
2.6329999 -1.4529999 -0.62800002 19
2.7149999 -1.488 -0.59600002 15
2.809 -1.528 -0.565 19
2.904 -1.571 -0.53100002 21
2.477 -1.376 -0.685 23
2.5569999 -1.408 -0.65799999 19
2.6370001 -1.4400001 -0.62800002 19
2.7149999 -1.472 -0.59500003 19
2.8080001 -1.513 -0.56400001 17
2.8989999 -1.551 -0.52899998 21
2.4749999 -1.3609999 -0.68300003 21
2.5580001 -1.3940001 -0.65700001 18
2.6359999 -1.425 -0.62599999 22
2.7130001 -1.455 -0.59399998 16
2.809 -1.4960001 -0.56300002 17
2.902 -1.536 -0.52899998 21
2.4790001 -1.348 -0.68300003 20
2.556 -1.377 -0.65399998 17
2.6340001 -1.408 -0.62400001 19
2.7119999 -1.438 -0.59200001 18
2.8080001 -1.479 -0.56099999 20
2.902 -1.518 -0.52700001 24
2.4790001 -1.332 -0.68099999 20
2.5580001 -1.363 -0.653 18
2.6370001 -1.393 -0.62300003 18
2.7130001 -1.4220001 -0.59100002 17
2.809 -1.462 -0.56 18
2.9000001 -1.499 -0.52600002 21
2.4809999 -1.318 -0.68000001 21
2.5639999 -1.35 -0.653 17
2.638 -1.377 -0.62199998 19
2.717 -1.4069999 -0.58999997 18
2.813 -1.446 -0.55900002 19
2.908 -1.485 -0.52499998 24
2.4890001 -1.306 -0.68000001 19
2.5610001 -1.331 -0.64999998 17
2.6429999 -1.362 -0.62099999 20
2.7179999 -1.3890001 -0.588 17
2.809 -1.426 -0.55599999 19
2.904 -1.4630001 -0.523 23
2.4820001 -1.285 -0.676 20
2.5639999 -1.316 -0.64899999 20
2.6429999 -1.344 -0.61900002 19
2.7219999 -1.373 -0.58700001 18
2.813 -1.408 -0.55500001 20
2.9070001 -1.4450001 -0.52100003 22
2.4860001 -1.27 -0.67500001 19
2.566 -1.298 -0.64700001 19
2.6459999 -1.3279999 -0.61699998 18
2.7260001 -1.3559999 -0.58499998 18
2.8139999 -1.39 -0.55299997 17
2.9070001 -1.425 -0.51899999 18
0 6.1440001 0 0
0 0 0 0
0 0 0 0
0 0 0 255
2.4849999 -1.252 -0.67199999 21
2.572 -1.284 -0.64600003 16
2.648 -1.309 -0.61500001 16
2.727 -1.337 -0.583 20
2.8199999 -1.372 -0.55199999 18
2.9130001 -1.4069999 -0.51800001 21
2.4909999 -1.237 -0.671 20
2.572 -1.265 -0.64399999 17
2.652 -1.2920001 -0.61400002 18
2.7320001 -1.3200001 -0.58200002 15
2.8210001 -1.353 -0.55000001 19
2.9189999 -1.39 -0.51700002 18
2.4949999 -1.221 -0.66900003 20
2.5769999 -1.248 -0.64200002 17
2.6570001 -1.275 -0.61199999 17
2.733 -1.301 -0.57999998 16
2.8280001 -1.335 -0.54900002 20
2.9159999 -1.367 -0.514 20
2.4979999 -1.2029999 -0.667 17
2.5780001 -1.23 -0.63999999 20
2.652 -1.2539999 -0.60900003 19
2.7349999 -1.2819999 -0.57700002 19
2.826 -1.313 -0.546 19
2.925 -1.349 -0.51300001 21
2.503 -1.187 -0.66500002 21
2.5780001 -1.21 -0.63700002 19
2.664 -1.239 -0.60799998 18
2.7420001 -1.2640001 -0.57599998 19
2.8340001 -1.296 -0.54400003 20
2.928 -1.329 -0.51099998 22
2.5050001 -1.168 -0.66299999 21
2.585 -1.193 -0.63499999 16
2.668 -1.22 -0.60600001 18
2.7409999 -1.243 -0.57300001 19
2.8299999 -1.272 -0.54100001 20
2.9289999 -1.307 -0.50800002 21
2.5109999 -1.151 -0.66100001 20
2.5829999 -1.1720001 -0.63200003 17
2.6689999 -1.2 -0.60399997 21
2.7460001 -1.224 -0.57099998 19
2.8340001 -1.252 -0.53899997 18
2.9230001 -1.2819999 -0.50400001 20
2.5139999 -1.132 -0.65899998 20
2.5929999 -1.156 -0.63099998 19
2.6719999 -1.1799999 -0.60100001 18
2.7539999 -1.205 -0.56900001 19
2.842 -1.233 -0.537 17
2.9319999 -1.263 -0.50300002 21
2.517 -1.113 -0.65600002 21
2.596 -1.137 -0.62900001 16
2.677 -1.161 -0.59899998 17
2.7550001 -1.184 -0.56699997 18
2.848 -1.214 -0.53500003 17
2.9400001 -1.243 -0.50099999 23
2.52 -1.094 -0.65399998 22
2.6029999 -1.119 -0.62699997 17
2.678 -1.14 -0.59600002 18
2.7609999 -1.165 -0.565 19
2.852 -1.193 -0.53299999 19
2.941 -1.22 -0.498 23
2.5320001 -1.079 -0.653 22
2.6070001 -1.099 -0.62400001 15
2.691 -1.124 -0.59600002 18
2.7679999 -1.145 -0.56300002 20
2.8529999 -1.171 -0.52999997 19
2.944 -1.198 -0.49599999 20
2.533 -1.058 -0.64999998 22
2.6059999 -1.077 -0.62099999 16
2.6900001 -1.101 -0.59200001 17
2.7679999 -1.123 -0.56 19
2.8559999 -1.148 -0.52700001 21
2.947 -1.176 -0.493 19
2.54 -1.04 -0.648 20
2.6199999 -1.062 -0.62099999 21
2.6989999 -1.0829999 -0.58999997 20
2.7780001 -1.104 -0.55800003 17
2.8659999 -1.1289999 -0.52600002 20
2.9530001 -1.154 -0.491 24
2.543 -1.02 -0.64600003 20
2.6229999 -1.041 -0.61799997 16
2.7 -1.061 -0.58700001 19
2.7839999 -1.084 -0.55599999 17
2.8670001 -1.1059999 -0.523 20
2.9649999 -1.135 -0.49000001 24
2.546 -1 -0.64300001 21
2.6259999 -1.02 -0.61500001 18
2.7060001 -1.041 -0.58499998 18
2.783 -1.061 -0.55299997 16
2.8729999 -1.085 -0.52100003 17
2.9679999 -1.112 -0.48699999 20
2.5539999 -0.98100001 -0.64099997 25
2.6300001 -1 -0.61199999 17
2.7090001 -1.02 -0.58200002 17
2.7969999 -1.043 -0.55199999 21
2.8759999 -1.063 -0.51800001 19
2.971 -1.089 -0.484 21
0 6.1440001 0 0
0 0 0 0
0 0 0 0
0 0 0 255
2.5550001 -0.95999998 -0.63800001 19
2.6340001 -0.97899997 -0.61000001 16
2.7079999 -0.99699998 -0.579 17
2.7939999 -1.0190001 -0.54799998 18
2.8770001 -1.039 -0.51499999 20
2.9749999 -1.0650001 -0.48100001 22
2.5610001 -0.94 -0.63499999 21
2.6359999 -0.95700002 -0.60699999 16
2.721 -0.97899997 -0.57800001 16
2.8 -0.99699998 -0.546 16
2.882 -1.017 -0.51200002 20
2.9719999 -1.04 -0.47799999 19
2.5639999 -0.92000002 -0.63300002 17
2.641 -0.93699998 -0.60399997 14
2.72 -0.95499998 -0.574 15
2.7969999 -0.97299999 -0.542 14
2.8870001 -0.995 -0.50999999 15
2.977 -1.017 -0.47499999 19
2.5650001 -0.898 -0.62900001 21
2.6489999 -0.917 -0.602 16
2.7249999 -0.93400002 -0.57200003 14
2.799 -0.94999999 -0.53899997 13
2.895 -0.97399998 -0.50800002 16
2.98 -0.99299997 -0.472 18
2.5699999 -0.87800002 -0.62699997 22
2.6470001 -0.89399999 -0.59899998 16
2.7249999 -0.91100001 -0.56800002 14
2.8050001 -0.92900002 -0.537 15
2.8959999 -0.94999999 -0.505 18
2.984 -0.97000003 -0.47 19
2.5699999 -0.85600001 -0.62300003 18
2.651 -0.87300003 -0.59600002 15
2.7360001 -0.89200002 -0.56699997 14
2.8139999 -0.90799999 -0.53500003 14
2.9030001 -0.92699999 -0.50199997 17
2.9979999 -0.949 -0.46900001 19
2.586 -0.838 -0.62400001 19
2.658 -0.852 -0.59399998 16
2.7420001 -0.87 -0.565 15
2.8180001 -0.88499999 -0.53200001 15
2.9030001 -0.903 -0.49900001 20
2.9879999 -0.921 -0.46399999 18
2.5799999 -0.81400001 -0.61900002 17
2.665 -0.83200002 -0.59200001 15
2.7460001 -0.84799999 -0.56199998 13
2.822 -0.86299998 -0.52999997 13
2.911 -0.88099998 -0.49700001 16
2.997 -0.89899999 -0.46200001 19
2.5829999 -0.79299998 -0.616 20
2.6670001 -0.80900002 -0.58899999 15
2.7420001 -0.82300001 -0.55800003 15
2.8269999 -0.83999997 -0.528 15
2.911 -0.85699999 -0.49399999 16
3 -0.875 -0.46000001 19
2.5880001 -0.77200001 -0.61400002 19
2.675 -0.78899997 -0.588 15
2.7579999 -0.80500001 -0.55800003 13
2.826 -0.81599998 -0.52399999 16
2.918 -0.83399999 -0.49200001 19
3.0020001 -0.85000002 -0.45699999 21
2.589 -0.75 -0.61000001 19
2.677 -0.76700002 -0.58499998 15
2.7579999 -0.78100002 -0.55500001 13
2.839 -0.796 -0.523 15
2.9189999 -0.81 -0.48899999 19
3.0109999 -0.82800001 -0.45500001 20
2.602 -0.73100001 -0.61000001 16
2.6800001 -0.74400002 -0.58200002 13
2.76 -0.759 -0.55199999 22
2.835 -0.77100003 -0.51999998 15
2.925 -0.78799999 -0.48699999 18
3.02 -0.80500001 -0.454 22
2.599 -0.708 -0.60600001 20
2.6830001 -0.72299999 -0.57999998 14
2.766 -0.73699999 -0.551 14
2.8340001 -0.74699998 -0.51700002 17
2.9260001 -0.76300001 -0.48500001 16
3.0220001 -0.78100002 -0.45100001 19
2.6029999 -0.68599999 -0.60399997 18
2.688 -0.70099998 -0.57800001 15
2.766 -0.713 -0.54699999 15
2.842 -0.72500002 -0.51499999 16
2.9330001 -0.74000001 -0.48300001 16
3.023 -0.75599998 -0.44800001 18
2.609 -0.66500002 -0.602 19
2.6900001 -0.67799997 -0.57499999 14
2.7709999 -0.69099998 -0.546 14
2.8499999 -0.70300001 -0.514 16
2.9360001 -0.71700001 -0.48100001 17
3.029 -0.73199999 -0.447 21
2.6110001 -0.64399999 -0.60000002 17
2.6989999 -0.65700001 -0.574 16
2.777 -0.66900003 -0.54400003 15
2.8499999 -0.67900002 -0.51099998 14
2.938 -0.69199997 -0.47799999 15
3.0350001 -0.708 -0.44499999 21
0 6.1440001 0 0
0 0 0 0
0 0 0 0
0 0 0 255
2.619 -0.62300003 -0.59899998 19
2.697 -0.634 -0.57099998 14
2.777 -0.64499998 -0.54100001 13
2.8540001 -0.65600002 -0.509 14
2.944 -0.66900003 -0.47600001 14
3.0320001 -0.68199998 -0.442 19
2.6140001 -0.59899998 -0.59500003 16
2.694 -0.61000001 -0.56699997 13
2.7780001 -0.62099999 -0.53899997 12
2.8559999 -0.63200003 -0.50599998 14
2.948 -0.64499998 -0.47499999 14
3.0369999 -0.65799999 -0.44 18
2.6289999 -0.57999998 -0.59600002 15
2.7030001 -0.58899999 -0.56699997 14
2.78 -0.59799999 -0.53600001 14
2.862 -0.60900003 -0.505 15
2.9519999 -0.62099999 -0.47299999 15
3.0469999 -0.63499999 -0.43900001 22
2.6240001 -0.55599999 -0.59200001 19
2.7049999 -0.56599998 -0.56400001 13
2.789 -0.57700002 -0.53600001 13
2.862 -0.58499998 -0.50300002 16
2.954 -0.597 -0.47099999 14
3.0469999 -0.60900003 -0.43700001 19
2.6270001 -0.53399998 -0.58999997 14
2.7090001 -0.54400003 -0.56300002 13
2.7909999 -0.55299997 -0.53399998 13
2.869 -0.56199998 -0.50099999 12
2.9560001 -0.57300001 -0.46900001 15
3.0510001 -0.58499998 -0.435 17
2.635 -0.51300001 -0.58899999 16
2.7149999 -0.52200001 -0.56199998 14
2.7969999 -0.53100002 -0.53200001 12
2.872 -0.53899997 -0.5 14
2.961 -0.54900002 -0.46700001 14
3.0480001 -0.55900002 -0.43200001 17
2.6300001 -0.49000001 -0.58600003 13
2.7130001 -0.49900001 -0.55900002 14
2.799 -0.50800002 -0.53100002 13
2.8759999 -0.51599997 -0.498 13
2.964 -0.52600002 -0.46599999 20
3.0550001 -0.53500003 -0.43099999 18
2.6340001 -0.46799999 -0.58499998 13
2.72 -0.477 -0.55800003 14
2.7969999 -0.48500001 -0.528 11
2.872 -0.491 -0.49599999 13
2.96 -0.5 -0.463 15
3.0569999 -0.51099998 -0.43000001 18
2.638 -0.447 -0.583 13
2.7219999 -0.45500001 -0.55699998 13
2.796 -0.461 -0.52600002 12
2.875 -0.46799999 -0.49399999 13
2.9619999 -0.47600001 -0.46200001 13
3.0610001 -0.486 -0.428 16
2.6489999 -0.426 -0.58399999 14
2.717 -0.43099999 -0.55400002 13
2.803 -0.43900001 -0.52499998 12
2.8800001 -0.44499999 -0.493 12
2.9660001 -0.45199999 -0.46000001 15
3.0580001 -0.46000001 -0.426 20
2.6470001 -0.403 -0.58200002 20
2.721 -0.40900001 -0.55299997 13
2.8 -0.41499999 -0.523 12
2.878 -0.41999999 -0.491 12
2.967 -0.428 -0.45899999 12
3.0650001 -0.43599999 -0.426 16
2.645 -0.38 -0.579 16
2.72 -0.38499999 -0.551 13
2.8 -0.391 -0.52200001 10
2.882 -0.39700001 -0.49000001 12
2.9690001 -0.40400001 -0.458 14
3.063 -0.41100001 -0.42399999 16
2.6429999 -0.35800001 -0.57700002 16
2.7249999 -0.36300001 -0.55000001 13
2.8039999 -0.368 -0.52100003 12
2.885 -0.37400001 -0.48899999 12
2.973 -0.37900001 -0.45699999 14
3.063 -0.38600001 -0.42300001 17
2.651 -0.336 -0.57800001 15
2.7290001 -0.34099999 -0.55000001 13
2.806 -0.345 -0.51999998 12
2.8840001 -0.34999999 -0.48800001 12
2.971 -0.35499999 -0.45500001 15
3.0669999 -0.361 -0.42199999 17
2.6459999 -0.31299999 -0.57499999 18
2.7290001 -0.31799999 -0.54799998 13
2.813 -0.32300001 -0.51999998 11
2.885 -0.32600001 -0.48699999 11
2.9790001 -0.331 -0.45500001 15
3.069 -0.336 -0.421 16
2.6489999 -0.292 -0.57499999 15
2.7279999 -0.29499999 -0.54699999 11
2.8099999 -0.29899999 -0.51800001 11
2.8859999 -0.30199999 -0.486 11
2.9760001 -0.30700001 -0.454 14
3.0650001 -0.31099999 -0.41999999 17
0 6.1440001 0 0
0 0 0 0
0 0 0 0
0 0 0 255
2.645 -0.26899999 -0.57300001 15
2.7260001 -0.27200001 -0.546 13
2.8080001 -0.27599999 -0.51700002 12
2.8900001 -0.27900001 -0.486 11
2.974 -0.28200001 -0.45300001 13
3.069 -0.28600001 -0.419 18
2.6530001 -0.24699999 -0.57300001 14
2.733 -0.25 -0.546 11
2.8099999 -0.252 -0.51599997 13
2.8870001 -0.255 -0.484 12
2.9690001 -0.257 -0.45100001 13
3.0680001 -0.26100001 -0.41800001 17
2.6559999 -0.22499999 -0.57300001 13
2.733 -0.227 -0.54500002 12
2.812 -0.229 -0.51599997 11
2.8900001 -0.23100001 -0.484 13
2.973 -0.233 -0.45100001 13
3.0669999 -0.236 -0.417 19
2.6500001 -0.20299999 -0.57099998 13
2.73 -0.204 -0.54400003 12
2.813 -0.206 -0.51499999 11
2.888 -0.207 -0.48300001 10
2.973 -0.20900001 -0.45100001 15
3.0610001 -0.211 -0.41600001 20
2.652 -0.18099999 -0.57099998 13
2.7349999 -0.182 -0.54400003 12
2.806 -0.183 -0.514 12
2.8789999 -0.183 -0.48100001 11
2.977 -0.185 -0.45100001 13
3.069 -0.18700001 -0.417 20
2.6500001 -0.15899999 -0.56999999 13
2.73 -0.15899999 -0.54299998 12
2.812 -0.16 -0.514 12
2.888 -0.161 -0.48199999 12
2.9679999 -0.161 -0.449 14
3.0599999 -0.162 -0.41499999 19
2.648 -0.13699999 -0.56900001 13
2.7290001 -0.13699999 -0.54299998 14
2.809 -0.13699999 -0.51300001 11
2.8829999 -0.13699999 -0.48100001 11
2.9660001 -0.13699999 -0.449 15
3.056 -0.13699999 -0.41499999 20
2.652 -0.115 -0.56999999 15
2.7279999 -0.114 -0.542 14
2.803 -0.114 -0.51200002 11
2.8840001 -0.113 -0.48100001 12
2.9690001 -0.113 -0.449 14
3.05 -0.112 -0.414 16
2.645 -0.092 -0.56900001 15
2.7320001 -0.092 -0.54299998 12
2.8039999 -0.090999998 -0.51200002 12
2.881 -0.090000004 -0.48100001 12
2.9679999 -0.089000002 -0.449 13
3.0580001 -0.088 -0.41499999 21
2.652 -0.071000002 -0.56999999 13
2.7290001 -0.068999998 -0.54299998 11
2.8 -0.068000004 -0.51200002 12
2.8770001 -0.066 -0.47999999 11
2.9630001 -0.064000003 -0.44800001 16
3.0550001 -0.063000001 -0.41499999 20
2.6440001 -0.048 -0.56800002 14
2.7219999 -0.046999998 -0.54100001 13
2.8010001 -0.045000002 -0.51200002 12
2.878 -0.043000001 -0.48100001 11
2.9579999 -0.041000001 -0.44800001 14
3.052 -0.039000001 -0.41499999 16
2.6470001 -0.027000001 -0.56900001 13
2.721 -0.025 -0.542 12
2.793 -0.022 -0.51099998 12
2.8699999 -0.02 -0.47999999 12
2.961 -0.017000001 -0.449 13
3.052 -0.014 -0.41499999 18
2.6429999 -0.0049999999 -0.56900001 14
2.7190001 -0.0020000001 -0.542 13
2.793 0 -0.51200002 12
2.869 0.003 -0.47999999 11
2.9560001 0.0060000001 -0.449 13
3.049 0.0089999996 -0.41499999 20
2.6400001 0.016000001 -0.56900001 13
2.711 0.018999999 -0.54100001 12
2.789 0.022 -0.51200002 11
2.868 0.026000001 -0.48100001 11
2.9549999 0.029999999 -0.449 13
3.0469999 0.033 -0.41600001 18
2.638 0.037999999 -0.56900001 16
2.71 0.041000001 -0.54100001 12
2.7880001 0.045000002 -0.51200002 11
2.8659999 0.048999999 -0.48100001 12
2.9530001 0.052999999 -0.44999999 15
3.04 0.057999998 -0.41600001 18
2.642 0.059999999 -0.57099998 12
2.7130001 0.064000003 -0.54299998 12
2.789 0.068000004 -0.51300001 12
2.8670001 0.071999997 -0.48199999 13
2.9489999 0.077 -0.44999999 13
3.039 0.082000002 -0.41600001 16
0 6.1440001 0 0
0 0 0 0
0 0 0 0
0 0 0 255
2.632 0.081 -0.56999999 17
2.7079999 0.085000001 -0.54299998 13
2.7809999 0.090000004 -0.51300001 10
2.8599999 0.094999999 -0.48199999 14
2.9449999 0.1 -0.44999999 13
3.0409999 0.106 -0.41800001 19
2.6270001 0.102 -0.56999999 14
2.7019999 0.107 -0.54299998 12
2.777 0.112 -0.51300001 15
2.855 0.118 -0.48199999 12
2.9419999 0.124 -0.45100001 12
3.0280001 0.13 -0.417 16
2.6229999 0.124 -0.56999999 14
2.701 0.12899999 -0.54400003 13
2.773 0.13500001 -0.514 11
2.849 0.14 -0.48300001 12
2.941 0.147 -0.45199999 13
3.0320001 0.154 -0.419 18
2.622 0.145 -0.57099998 14
2.698 0.15099999 -0.54400003 12
2.7679999 0.15700001 -0.514 11
2.852 0.163 -0.484 11
2.9349999 0.17 -0.45300001 14
3.0220001 0.177 -0.419 14
2.6170001 0.16599999 -0.57200003 14
2.698 0.17299999 -0.546 13
2.7679999 0.17900001 -0.51599997 12
2.845 0.186 -0.48500001 10
2.927 0.193 -0.45300001 13
3.0239999 0.20100001 -0.421 17
2.6129999 0.18700001 -0.57200003 14
2.6889999 0.19400001 -0.54500002 12
2.7620001 0.20100001 -0.51599997 12
2.842 0.208 -0.486 10
2.9260001 0.21600001 -0.454 12
3.0109999 0.22400001 -0.41999999 17
2.6110001 0.208 -0.574 15
2.6819999 0.215 -0.546 11
2.756 0.222 -0.51599997 12
2.839 0.23100001 -0.48699999 11
2.9159999 0.23800001 -0.454 12
3.006 0.24699999 -0.421 14
2.6040001 0.229 -0.574 14
2.6849999 0.237 -0.54799998 13
2.7539999 0.244 -0.51800001 11
2.8340001 0.25299999 -0.48800001 11
2.9159999 0.26100001 -0.456 13
3.007 0.271 -0.42300001 15
2.6040001 0.25 -0.57599998 13
2.675 0.25799999 -0.54799998 12
2.7520001 0.266 -0.51899999 13
2.829 0.27399999 -0.48899999 11
2.9089999 0.28400001 -0.45699999 15
3.0009999 0.294 -0.42399999 16
2.5969999 0.27000001 -0.57599998 15
2.668 0.278 -0.54799998 13
2.747 0.287 -0.51999998 13
2.825 0.296 -0.49000001 11
2.9089999 0.30599999 -0.45899999 13
2.9979999 0.317 -0.426 20
2.5929999 0.28999999 -0.57700002 17
2.668 0.29899999 -0.55000001 14
2.7409999 0.308 -0.52100003 15
2.816 0.31799999 -0.49000001 13
2.902 0.32800001 -0.45899999 13
2.9949999 0.34 -0.42699999 15
2.592 0.31099999 -0.579 17
2.6600001 0.31999999 -0.551 13
2.74 0.33000001 -0.523 13
2.8150001 0.34 -0.49200001 11
2.8970001 0.34999999 -0.461 12
2.9920001 0.36300001 -0.42899999 17
2.5829999 0.331 -0.579 17
2.6559999 0.34 -0.55199999 16
2.7349999 0.35100001 -0.52399999 11
2.8080001 0.361 -0.493 11
2.8940001 0.37200001 -0.46200001 15
2.9820001 0.38499999 -0.43000001 17
2.5799999 0.35100001 -0.58099997 20
2.655 0.361 -0.55400002 13
2.7260001 0.37099999 -0.52499998 12
2.8050001 0.382 -0.495 13
2.8829999 0.39399999 -0.463 15
2.9749999 0.40700001 -0.43099999 16
2.572 0.37 -0.58099997 15
2.6470001 0.38100001 -0.55500001 13
2.7219999 0.39199999 -0.52600002 12
2.7980001 0.403 -0.49599999 18
2.8840001 0.41600001 -0.465 14
2.97 0.42899999 -0.43200001 16
2.572 0.391 -0.58399999 14
2.6440001 0.40200001 -0.55599999 13
2.7149999 0.412 -0.52700001 12
2.8 0.42500001 -0.49900001 12
2.8829999 0.43799999 -0.46700001 13
2.9660001 0.45100001 -0.43399999 20
0 6.1440001 0 0
0 0 0 0
0 0 0 0
0 0 0 255
2.562 0.41 -0.58399999 17
2.642 0.42199999 -0.55900002 13
2.7219999 0.435 -0.53100002 14
2.7920001 0.44600001 -0.5 14
