# .PCD v0.7 - Point Cloud Data file format
VERSION 0.7
FIELDS x y z intensity
SIZE 4 4 4 4
TYPE F F F F
COUNT 1 1 1 1
WIDTH 1583
HEIGHT 1
VIEWPOINT 0 0 0 1 0 0 0
POINTS 1583
DATA ascii
2.4890001 -1.4529999 -0.68599999 19
2.566 -1.4859999 -0.65700001 18
2.6459999 -1.521 -0.62599999 17
2.7260001 -1.556 -0.59299999 17
2.819 -1.598 -0.56099999 18
2.9170001 -1.6440001 -0.52700001 19
2.484 -1.437 -0.68400002 20
2.5650001 -1.472 -0.65499997 17
2.6500001 -1.508 -0.62599999 19
2.7260001 -1.54 -0.59200001 17
2.822 -1.584 -0.56099999 19
2.915 -1.627 -0.52600002 22
2.4890001 -1.426 -0.68400002 17
2.566 -1.457 -0.65399998 17
2.6530001 -1.495 -0.625 18
2.7249999 -1.524 -0.59100002 17
2.8239999 -1.569 -0.56 19
2.918 -1.6109999 -0.52499998 21
2.4879999 -1.411 -0.68199998 19
2.5669999 -1.443 -0.653 18
2.6459999 -1.475 -0.62199998 19
2.7260001 -1.5089999 -0.58999997 19
2.819 -1.55 -0.55800003 21
2.9189999 -1.594 -0.52399999 26
2.4860001 -1.3940001 -0.68000001 21
2.569 -1.428 -0.65200001 18
2.6489999 -1.461 -0.62199998 20
2.727 -1.492 -0.588 17
2.826 -1.536 -0.55699998 18
2.9200001 -1.576 -0.523 22
2.4920001 -1.382 -0.67900002 21
2.5669999 -1.411 -0.64999998 19
2.6530001 -1.446 -0.62099999 20
2.7309999 -1.477 -0.588 20
2.8280001 -1.518 -0.55599999 19
2.9219999 -1.559 -0.52100003 22
2.494 -1.3660001 -0.67799997 22
2.5769999 -1.399 -0.64999998 16
2.6530001 -1.428 -0.61900002 19
2.7349999 -1.461 -0.58600003 17
2.8269999 -1.499 -0.55400002 18
2.9230001 -1.54 -0.51999998 20
2.4960001 -1.35 -0.676 22
2.573 -1.3789999 -0.64700001 19
2.654 -1.411 -0.61699998 19
2.7360001 -1.443 -0.58499998 19
2.8269999 -1.48 -0.55199999 21
2.9289999 -1.523 -0.51899999 22
0 6.1440001 0 0
0 0 0 0
0 0 0 0
0 0 0 255
2.5009999 -1.335 -0.67500001 19
2.5739999 -1.362 -0.64499998 18
2.658 -1.3940001 -0.616 17
2.7360001 -1.424 -0.583 18
2.8299999 -1.462 -0.551 20
2.927 -1.502 -0.51700002 21
2.5009999 -1.318 -0.67299998 22
2.579 -1.346 -0.64399999 16
2.6589999 -1.376 -0.61400002 19
2.7390001 -1.406 -0.58099997 17
2.8369999 -1.4450001 -0.55000001 20
2.9319999 -1.483 -0.51499999 18
2.4990001 -1.299 -0.67000002 19
2.5840001 -1.33 -0.64300001 18
2.6630001 -1.358 -0.61199999 19
2.7409999 -1.387 -0.579 18
2.835 -1.424 -0.54699999 18
2.931 -1.462 -0.51300001 20
2.5050001 -1.283 -0.66799998 18
2.5869999 -1.313 -0.64099997 17
2.6659999 -1.341 -0.61000001 18
2.7490001 -1.3710001 -0.57800001 19
2.836 -1.404 -0.54500002 18
2.9319999 -1.4400001 -0.50999999 19
2.507 -1.265 -0.66600001 19
2.5910001 -1.295 -0.639 18
2.6719999 -1.323 -0.60900003 16
2.7520001 -1.351 -0.57599998 19
2.839 -1.383 -0.54299998 17
2.941 -1.423 -0.509 20
2.5139999 -1.249 -0.66500002 20
2.5899999 -1.275 -0.63599998 15
2.671 -1.303 -0.60600001 21
2.7539999 -1.331 -0.574 18
2.8469999 -1.3660001 -0.542 17
2.9419999 -1.401 -0.50700003 21
2.516 -1.23 -0.662 20
2.5940001 -1.256 -0.634 18
2.674 -1.284 -0.60299999 20
2.753 -1.3099999 -0.57099998 18
2.8510001 -1.346 -0.53899997 19
2.947 -1.381 -0.505 18
2.5220001 -1.214 -0.66100001 21
2.6029999 -1.24 -0.63300002 17
2.6830001 -1.267 -0.602 20
2.7579999 -1.291 -0.56900001 18
2.852 -1.324 -0.537 18
2.951 -1.36 -0.50300002 20
2.5179999 -1.191 -0.65700001 18
2.6010001 -1.2180001 -0.62900001 20
2.6849999 -1.2460001 -0.60000002 20
2.7639999 -1.272 -0.56699997 20
2.858 -1.3049999 -0.53500003 18
2.9549999 -1.3380001 -0.50099999 23
2.526 -1.174 -0.65499997 20
2.608 -1.201 -0.62800002 17
2.6849999 -1.225 -0.59600002 20
2.7679999 -1.252 -0.56400001 18
2.8610001 -1.283 -0.53200001 19
2.96 -1.318 -0.498 19
2.53 -1.156 -0.653 22
2.609 -1.1799999 -0.62400001 17
2.688 -1.204 -0.59399998 20
2.7690001 -1.23 -0.56099999 21
2.859 -1.2589999 -0.52899998 18
2.9630001 -1.295 -0.49599999 19
2.5339999 -1.137 -0.64999998 21
2.6140001 -1.161 -0.62199998 20
2.7 -1.188 -0.59299999 17
2.7780001 -1.211 -0.56 19
2.8629999 -1.238 -0.52600002 20
2.971 -1.275 -0.49399999 22
2.54 -1.118 -0.648 22
2.619 -1.141 -0.62 16
2.7019999 -1.166 -0.58999997 17
2.7850001 -1.192 -0.55800003 17
2.8729999 -1.219 -0.52499998 20
2.973 -1.252 -0.491 21
2.5439999 -1.098 -0.64600003 23
2.625 -1.122 -0.61799997 17
2.7090001 -1.147 -0.588 19
2.789 -1.17 -0.55599999 19
2.8770001 -1.197 -0.52200001 19
2.973 -1.227 -0.48800001 21
2.55 -1.08 -0.64399999 17
2.631 -1.102 -0.616 16
2.7090001 -1.124 -0.58499998 20
2.7850001 -1.145 -0.551 20
2.882 -1.175 -0.51999998 18
2.98 -1.206 -0.486 23
2.553 -1.059 -0.64099997 24
2.6370001 -1.0829999 -0.61400002 18
2.7119999 -1.103 -0.58200002 17
2.8010001 -1.1289999 -0.551 17
2.8840001 -1.152 -0.51700002 21
2.9809999 -1.181 -0.48300001 22
0 6.1440001 0 0
0 0 0 0
0 0 0 0
0 0 0 255
2.556 -1.039 -0.63800001 21
2.642 -1.062 -0.611 20
2.717 -1.082 -0.579 20
2.803 -1.1059999 -0.54799998 17
2.8889999 -1.13 -0.514 19
2.9879999 -1.16 -0.47999999 24
2.5610001 -1.018 -0.63499999 18
2.6400001 -1.039 -0.60699999 16
2.723 -1.061 -0.57700002 18
2.8080001 -1.084 -0.54500002 18
2.891 -1.107 -0.51099998 19
2.993 -1.136 -0.47799999 21
2.5699999 -1 -0.634 20
2.651 -1.021 -0.60600001 19
2.7290001 -1.04 -0.57499999 18
2.8080001 -1.061 -0.542 19
2.902 -1.087 -0.50999999 21
2.9949999 -1.112 -0.47499999 22
2.5699999 -0.97799999 -0.63 22
2.6429999 -0.995 -0.60000002 16
2.733 -1.0190001 -0.57200003 21
2.8150001 -1.039 -0.54000002 20
2.9059999 -1.063 -0.50700003 17
3.003 -1.09 -0.47299999 20
2.5769999 -0.958 -0.62800002 19
2.658 -0.97799999 -0.60000002 15
2.7360001 -0.99599999 -0.56900001 17
2.819 -1.017 -0.537 14
2.9070001 -1.039 -0.50400001 16
3 -1.064 -0.46900001 16
2.5810001 -0.93699998 -0.625 21
2.658 -0.95499998 -0.59600002 17
2.744 -0.97600001 -0.56699997 16
2.8210001 -0.99400002 -0.53399998 16
2.9119999 -1.017 -0.50099999 16
3.0020001 -1.039 -0.46599999 19
2.5869999 -0.917 -0.62300003 20
2.664 -0.93400002 -0.59399998 16
2.7460001 -0.95300001 -0.56400001 16
2.825 -0.97100002 -0.53100002 15
2.9189999 -0.99400002 -0.49900001 18
3.01 -1.016 -0.46399999 19
2.592 -0.89600003 -0.62099999 21
2.668 -0.912 -0.59100002 15
2.7479999 -0.93000001 -0.56099999 12
2.826 -0.94800001 -0.528 13
2.9230001 -0.97100002 -0.49599999 16
3.0139999 -0.99299997 -0.461 17
2.5940001 -0.87400001 -0.61799997 18
2.671 -0.88999999 -0.588 15
2.7539999 -0.90799999 -0.55900002 16
2.836 -0.926 -0.52600002 15
2.925 -0.94700003 -0.493 17
3.007 -0.96499997 -0.45699999 19
2.6010001 -0.85399997 -0.616 20
2.675 -0.86799997 -0.58600003 15
2.763 -0.88800001 -0.55699998 16
2.8369999 -0.90200001 -0.523 14
2.924 -0.92199999 -0.49000001 15
3.027 -0.94599998 -0.45699999 19
2.6070001 -0.83200002 -0.61299998 17
2.6849999 -0.84799999 -0.58499998 16
2.767 -0.86500001 -0.55400002 19
2.846 -0.88099998 -0.52200001 13
2.9330001 -0.89999998 -0.48800001 14
3.0309999 -0.921 -0.454 22
2.605 -0.80900002 -0.60900003 21
2.6919999 -0.82700002 -0.583 16
2.7750001 -0.84399998 -0.55299997 15
2.8440001 -0.85600001 -0.51800001 14
2.9419999 -0.87699997 -0.486 15
3.03 -0.89600003 -0.45100001 19
2.615 -0.78899997 -0.60799998 17
2.6949999 -0.80400002 -0.57999998 16
2.7750001 -0.81999999 -0.54900002 14
2.8499999 -0.83399999 -0.51599997 14
2.9389999 -0.85100001 -0.48300001 16
3.0280001 -0.86900002 -0.447 18
2.6199999 -0.76800001 -0.60600001 15
2.698 -0.78200001 -0.57700002 15
2.78 -0.79699999 -0.54699999 15
2.858 -0.81099999 -0.514 13
2.9460001 -0.829 -0.48100001 16
3.039 -0.847 -0.44600001 21
2.6199999 -0.745 -0.60299999 17
2.7049999 -0.76099998 -0.57499999 15
2.7869999 -0.77499998 -0.54500002 16
2.8570001 -0.787 -0.51099998 16
2.9449999 -0.80299997 -0.47799999 16
3.0409999 -0.82200003 -0.44299999 17
2.6240001 -0.72299999 -0.60000002 19
2.7049999 -0.73699999 -0.57200003 15
2.789 -0.75199997 -0.54299998 16
2.862 -0.764 -0.509 17
2.954 -0.77999997 -0.47600001 16
3.0450001 -0.79699999 -0.44100001 20
0 6.1440001 0 0
0 0 0 0
0 0 0 0
0 0 0 255
2.6259999 -0.70099998 -0.59799999 22
2.711 -0.71499997 -0.56999999 16
2.7909999 -0.72799999 -0.54000002 15
2.8640001 -0.74000001 -0.50599998 15
2.9579999 -0.75599998 -0.47400001 16
3.05 -0.77200001 -0.43900001 21
2.632 -0.67900002 -0.59600002 17
2.71 -0.69099998 -0.56699997 16
2.789 -0.704 -0.537 15
2.869 -0.71700001 -0.50400001 20
2.9630001 -0.73299998 -0.472 17
3.052 -0.74800003 -0.43599999 19
2.635 -0.65700001 -0.59399998 25
2.714 -0.66900003 -0.565 15
2.7950001 -0.68199998 -0.53500003 13
2.8740001 -0.69400001 -0.50199997 13
2.967 -0.70899999 -0.47 16
3.0569999 -0.72299999 -0.43399999 21
2.6389999 -0.63499999 -0.59200001 15
2.7219999 -0.648 -0.56400001 15
2.799 -0.65799999 -0.53299999 16
2.8770001 -0.67000002 -0.5 13
2.9690001 -0.68400002 -0.46700001 17
3.0639999 -0.699 -0.433 21
2.6459999 -0.61400002 -0.58999997 15
2.7160001 -0.62300003 -0.56 13
2.803 -0.63599998 -0.53100002 15
2.882 -0.64600003 -0.498 15
2.9749999 -0.66100001 -0.46599999 14
3.0680001 -0.67400002 -0.43099999 19
2.6400001 -0.58999997 -0.58600003 19
2.721 -0.60100001 -0.55800003 15
2.8080001 -0.61299998 -0.52899998 13
2.882 -0.62199998 -0.49599999 14
2.9790001 -0.63599998 -0.46399999 16
3.066 -0.648 -0.428 18
2.6500001 -0.56900001 -0.58600003 17
2.727 -0.579 -0.55699998 15
2.8139999 -0.58999997 -0.528 13
2.8859999 -0.59799999 -0.49399999 14
2.9779999 -0.611 -0.46200001 15
3.0669999 -0.62300003 -0.426 18
2.6459999 -0.54500002 -0.58200002 16
2.7279999 -0.55500001 -0.55500001 14
2.813 -0.56599998 -0.52600002 11
2.8929999 -0.57499999 -0.493 13
2.9779999 -0.58600003 -0.45899999 12
3.0769999 -0.59899998 -0.42500001 17
2.654 -0.52399999 -0.58200002 14
2.737 -0.53399998 -0.55400002 15
2.8099999 -0.542 -0.523 12
2.8959999 -0.551 -0.491 12
2.9849999 -0.56199998 -0.458 13
3.076 -0.57300001 -0.42300001 17
2.6589999 -0.50199997 -0.58099997 14
2.737 -0.50999999 -0.55199999 14
2.813 -0.51800001 -0.52100003 13
2.8929999 -0.52700001 -0.48899999 13
2.983 -0.537 -0.456 13
3.079 -0.54799998 -0.421 21
2.655 -0.479 -0.57800001 16
2.737 -0.48699999 -0.55000001 15
2.8150001 -0.495 -0.51899999 12
2.8959999 -0.50300002 -0.48699999 13
2.993 -0.514 -0.45500001 14
3.0780001 -0.52200001 -0.41999999 16
2.6559999 -0.456 -0.57599998 15
2.7409999 -0.46399999 -0.54900002 13
2.826 -0.47299999 -0.51999998 11
2.898 -0.479 -0.486 14
2.994 -0.48899999 -0.454 14
3.082 -0.49700001 -0.41800001 22
2.6659999 -0.435 -0.57599998 15
2.74 -0.44100001 -0.54699999 13
2.822 -0.44800001 -0.51700002 13
2.9000001 -0.45500001 -0.484 13
2.993 -0.46399999 -0.45199999 13
3.086 -0.47299999 -0.417 18
2.6600001 -0.41100001 -0.57300001 14
2.7479999 -0.419 -0.54699999 15
2.8239999 -0.42500001 -0.51599997 12
2.9059999 -0.43200001 -0.484 11
2.993 -0.43900001 -0.44999999 15
3.089 -0.44800001 -0.41600001 18
2.6630001 -0.389 -0.57200003 15
2.744 -0.39500001 -0.54400003 12
2.8239999 -0.40099999 -0.514 12
2.9000001 -0.40700001 -0.48100001 13
2.994 -0.414 -0.449 13
3.0869999 -0.42199999 -0.414 16
2.6659999 -0.36700001 -0.57099998 19
2.747 -0.373 -0.54299998 12
2.8299999 -0.37900001 -0.514 12
2.9030001 -0.38299999 -0.47999999 12
3 -0.391 -0.449 17
3.0910001 -0.39700001 -0.414 17
0 6.1440001 0 0
0 0 0 0
0 0 0 0
0 0 0 255
2.6630001 -0.34400001 -0.56900001 13
2.744 -0.34900001 -0.54100001 13
2.8310001 -0.35499999 -0.51200002 12
2.908 -0.36000001 -0.47999999 13
2.997 -0.36500001 -0.447 14
3.089 -0.37200001 -0.412 19
2.6730001 -0.32300001 -0.56999999 17
2.7479999 -0.32600001 -0.54100001 13
2.8280001 -0.331 -0.51099998 11
2.9059999 -0.33500001 -0.47799999 11
2.9979999 -0.34099999 -0.44600001 13
3.0910001 -0.347 -0.41100001 18
2.6700001 -0.30000001 -0.56800002 17
2.744 -0.303 -0.53899997 11
2.8269999 -0.30700001 -0.50999999 11
2.902 -0.31099999 -0.477 12
2.9960001 -0.31600001 -0.44499999 14
3.089 -0.32100001 -0.41 16
2.6630001 -0.27599999 -0.565 12
2.7490001 -0.28099999 -0.53899997 13
2.8310001 -0.28400001 -0.509 11
2.9030001 -0.287 -0.47600001 12
2.9990001 -0.292 -0.44400001 14
3.089 -0.296 -0.40900001 18
2.668 -0.255 -0.56599998 14
2.7479999 -0.25799999 -0.53799999 12
2.832 -0.26100001 -0.509 11
2.905 -0.26300001 -0.47600001 12
2.9990001 -0.26699999 -0.44400001 16
3.089 -0.271 -0.40900001 17
2.6719999 -0.233 -0.56599998 14
2.7479999 -0.235 -0.537 10
2.8280001 -0.237 -0.50700003 12
2.9089999 -0.23999999 -0.47600001 13
2.9979999 -0.243 -0.44299999 14
3.0899999 -0.24600001 -0.40799999 18
2.6700001 -0.20999999 -0.565 14
2.744 -0.212 -0.53600001 11
2.8269999 -0.214 -0.50700003 13
2.904 -0.215 -0.47400001 12
2.9960001 -0.21799999 -0.442 14
3.0869999 -0.221 -0.40700001 18
2.6659999 -0.18799999 -0.56300002 14
2.75 -0.189 -0.53600001 12
2.832 -0.191 -0.50700003 12
2.908 -0.192 -0.47400001 13
2.9879999 -0.193 -0.44100001 14
3.086 -0.19599999 -0.40700001 19
2.6700001 -0.16500001 -0.56400001 14
2.75 -0.167 -0.53600001 12
2.829 -0.168 -0.50599998 11
2.905 -0.168 -0.47400001 11
2.9920001 -0.17 -0.44100001 14
3.082 -0.171 -0.40599999 20
2.6689999 -0.14300001 -0.56300002 14
2.744 -0.14399999 -0.53500003 12
2.825 -0.14399999 -0.505 11
2.9070001 -0.145 -0.47400001 12
2.993 -0.145 -0.44100001 14
3.086 -0.146 -0.40700001 18
2.6700001 -0.121 -0.56300002 13
2.747 -0.121 -0.53500003 13
2.8269999 -0.121 -0.50599998 12
2.911 -0.121 -0.47499999 12
2.99 -0.121 -0.44 15
3.0799999 -0.121 -0.40599999 17
2.6630001 -0.098999999 -0.56199998 13
2.744 -0.098999999 -0.53500003 12
2.822 -0.097999997 -0.505 11
2.898 -0.097000003 -0.472 13
2.9920001 -0.097000003 -0.44100001 13
3.0810001 -0.096000001 -0.40599999 19
2.6670001 -0.077 -0.56300002 13
2.7409999 -0.075999998 -0.53399998 11
2.825 -0.075000003 -0.505 10
2.9000001 -0.074000001 -0.47299999 12
2.983 -0.072999999 -0.44 12
3.0810001 -0.071999997 -0.40599999 16
2.6589999 -0.055 -0.56099999 14
2.7420001 -0.054000001 -0.53500003 13
2.8150001 -0.052000001 -0.50400001 11
2.898 -0.050000001 -0.47299999 11
2.9849999 -0.048999999 -0.44 15
3.0780001 -0.046999998 -0.40700001 18
2.6619999 -0.033 -0.56300002 13
2.7379999 -0.030999999 -0.53399998 11
2.8169999 -0.028999999 -0.505 12
2.898 -0.027000001 -0.47400001 11
2.98 -0.025 -0.44 15
3.0710001 -0.023 -0.40599999 16
2.6619999 -0.011 -0.56300002 13
2.7349999 -0.0089999996 -0.53399998 12
2.8110001 -0.0060000001 -0.50400001 12
2.8900001 -0.003 -0.47299999 12
2.9779999 -0.001 -0.44100001 14
3.0680001 0.001 -0.40599999 19
0 6.1440001 0 0
0 0 0 0
0 0 0 0
0 0 0 255
2.6559999 0.0099999998 -0.56199998 16
2.7290001 0.013 -0.53399998 13
2.802 0.016000001 -0.50300002 11
2.8870001 0.018999999 -0.47299999 12
2.977 0.022 -0.44100001 14
3.076 0.026000001 -0.40799999 17
2.654 0.030999999 -0.56300002 14
2.7320001 0.035 -0.53500003 12
2.806 0.037999999 -0.505 11
2.882 0.041999999 -0.47299999 13
2.9749999 0.046 -0.442 15
3.0599999 0.050000001 -0.40700001 21
2.651 0.052999999 -0.56300002 13
2.7290001 0.057 -0.53600001 13
2.806 0.061000001 -0.50599998 12
2.881 0.064999998 -0.47400001 12
2.9619999 0.068999998 -0.44100001 14
3.059 0.074000001 -0.40799999 16
2.6440001 0.075000003 -0.56300002 14
2.724 0.079000004 -0.53600001 12
2.8 0.082999997 -0.50599998 11
2.8770001 0.088 -0.47400001 11
2.964 0.093000002 -0.442 12
3.0569999 0.097999997 -0.40900001 16
2.6440001 0.096000001 -0.56400001 20
2.7249999 0.101 -0.537 13
2.796 0.106 -0.50599998 13
2.875 0.111 -0.47499999 12
2.9660001 0.116 -0.44400001 13
3.0510001 0.122 -0.40900001 16
2.641 0.118 -0.56400001 14
2.7179999 0.123 -0.537 13
2.796 0.12800001 -0.50700003 13
2.8729999 0.133 -0.47600001 12
2.9590001 0.14 -0.44400001 14
3.05 0.146 -0.41 16
2.6389999 0.139 -0.565 15
2.7160001 0.145 -0.53799999 13
2.7920001 0.15000001 -0.50800002 14
2.868 0.156 -0.477 10
2.957 0.163 -0.44499999 13
3.039 0.169 -0.41 17
2.632 0.16 -0.565 15
2.711 0.16599999 -0.53799999 12
2.7869999 0.17200001 -0.509 11
2.8599999 0.178 -0.477 10
2.944 0.185 -0.44400001 13
3.04 0.193 -0.412 15
2.631 0.18099999 -0.56599998 15
2.71 0.18799999 -0.54000002 13
2.783 0.19400001 -0.50999999 12
2.8640001 0.20100001 -0.479 15
2.9460001 0.208 -0.44600001 13
3.036 0.21600001 -0.41299999 17
2.6259999 0.20200001 -0.56699997 15
2.7019999 0.20900001 -0.54000002 12
2.7780001 0.21600001 -0.50999999 10
2.8559999 0.223 -0.479 11
2.944 0.23100001 -0.44800001 12
3.029 0.23899999 -0.41299999 14
2.6199999 0.222 -0.56800002 15
2.694 0.229 -0.54000002 13
2.773 0.237 -0.51099998 14
2.8540001 0.245 -0.48100001 13
2.9319999 0.25299999 -0.44800001 14
3.0239999 0.26300001 -0.414 18
2.6170001 0.243 -0.56900001 16
2.6989999 0.25099999 -0.54299998 13
2.7720001 0.259 -0.51300001 11
2.8499999 0.26699999 -0.48199999 12
2.9319999 0.27599999 -0.449 12
3.02 0.28600001 -0.41600001 15
2.612 0.26300001 -0.56999999 16
2.6889999 0.271 -0.54299998 12
2.7620001 0.28 -0.51300001 12
2.8410001 0.289 -0.48199999 13
2.9260001 0.29800001 -0.44999999 14
3.017 0.30899999 -0.417 15
2.6070001 0.28299999 -0.56999999 17
2.6800001 0.292 -0.54299998 13
2.7590001 0.301 -0.514 12
2.8369999 0.31 -0.48300001 12
2.927 0.32100001 -0.45300001 12
3.0139999 0.33199999 -0.419 17
2.602 0.30399999 -0.57099998 15
2.684 0.31400001 -0.546 14
2.7590001 0.32300001 -0.51599997 12
2.8310001 0.33199999 -0.48500001 14
2.9189999 0.34299999 -0.45300001 14
3.007 0.354 -0.41999999 17
2.6029999 0.32499999 -0.574 20
2.674 0.33399999 -0.546 13
2.75 0.34299999 -0.51700002 14
2.832 0.354 -0.48699999 12
2.9130001 0.36399999 -0.45500001 15
3.0039999 0.377 -0.42199999 17
0 6.1440001 0 0
0 0 0 0
0 0 0 0
0 0 0 255
2.592 0.34299999 -0.574 15
2.6719999 0.354 -0.54799998 13
2.747 0.36399999 -0.51800001 15
2.8239999 0.375 -0.48800001 11
2.9059999 0.38600001 -0.456 13
3.0009999 0.39899999 -0.42300001 18
2.5880001 0.36300001 -0.57499999 17
2.6670001 0.37400001 -0.54900002 12
2.74 0.38499999 -0.51899999 12
2.825 0.39700001 -0.49000001 12
2.908 0.40900001 -0.458 14
2.9909999 0.421 -0.42399999 16
2.5840001 0.38299999 -0.57700002 18
2.658 0.39399999 -0.54900002 14
2.7420001 0.40599999 -0.52200001 12
2.8169999 0.417 -0.491 12
2.9000001 0.43000001 -0.45899999 13
2.983 0.442 -0.42500001 16
2.5799999 0.403 -0.57800001 16
2.6619999 0.41499999 -0.55299997 14
2.7309999 0.426 -0.523 13
2.8110001 0.43799999 -0.49200001 12
2.892 0.44999999 -0.46000001 14
2.98 0.46399999 -0.42699999 17
2.573 0.42199999 -0.579 18
2.648 0.433 -0.55199999 14
2.727 0.44600001 -0.52399999 12
2.809 0.45899999 -0.49399999 12
2.8840001 0.47099999 -0.46200001 13
2.97 0.48500001 -0.428 16
2.572 0.442 -0.58099997 15
2.6440001 0.45300001 -0.55400002 13
2.727 0.46700001 -0.52700001 15
2.803 0.479 -0.49599999 14
2.882 0.493 -0.46399999 13
2.9660001 0.50700003 -0.43000001 16
2.563 0.46000001 -0.58200002 14
2.642 0.47299999 -0.55599999 12
2.7149999 0.48500001 -0.52700001 12
2.7950001 0.49900001 -0.49700001 12
2.875 0.51300001 -0.465 12
2.96 0.528 -0.43200001 14
2.5639999 0.47999999 -0.58499998 16
2.6340001 0.49200001 -0.55699998 13
2.7130001 0.50599998 -0.52899998 13
2.789 0.51899999 -0.498 11
2.8670001 0.53299999 -0.46599999 13
2.954 0.54799998 -0.433 16
2.556 0.498 -0.58600003 16
2.631 0.51099998 -0.55900002 15
2.7049999 0.52399999 -0.52999997 12
2.7809999 0.53799999 -0.49900001 11
2.858 0.55199999 -0.46700001 15
2.947 0.56900001 -0.435 16
2.5480001 0.51599997 -0.58600003 17
2.618 0.528 -0.55900002 13
2.7030001 0.54400003 -0.53200001 13
2.7739999 0.55699998 -0.50099999 11
2.8529999 0.57200003 -0.46900001 15
2.9400001 0.58899999 -0.43599999 18
2.5439999 0.53399998 -0.588 14
2.619 0.54799998 -0.56199998 15
2.6919999 0.56199998 -0.53299999 13
2.7739999 0.57800001 -0.50300002 14
2.852 0.59299999 -0.47099999 14
2.937 0.61000001 -0.43799999 16
2.543 0.55299997 -0.58999997 15
2.609 0.56599998 -0.56199998 14
2.6849999 0.58099997 -0.53399998 14
2.7609999 0.59600002 -0.50400001 13
2.8429999 0.61199999 -0.472 13
2.9300001 0.63 -0.44 15
2.5350001 0.56999999 -0.59100002 15
2.6040001 0.58399999 -0.56300002 14
2.6789999 0.59899998 -0.53500003 15
2.7539999 0.61400002 -0.505 15
2.836 0.63099998 -0.47400001 13
2.921 0.64899999 -0.44100001 20
2.529 0.588 -0.59299999 16
2.598 0.602 -0.565 15
2.6789999 0.61900002 -0.53799999 13
2.7579999 0.63499999 -0.50800002 13
2.8310001 0.65100002 -0.47499999 15
2.9230001 0.671 -0.44400001 18
2.5280001 0.60600001 -0.59500003 16
2.5869999 0.61799997 -0.565 14
2.671 0.63599998 -0.53899997 14
2.7449999 0.65200001 -0.50800002 13
2.8269999 0.67000002 -0.477 15
2.914 0.68900001 -0.44499999 18
2.523 0.62300003 -0.597 16
2.5940001 0.63800001 -0.56900001 23
2.6670001 0.65399998 -0.54000002 15
2.7409999 0.67000002 -0.50999999 14
2.8169999 0.68699998 -0.47799999 15
2.9059999 0.708 -0.44600001 19
0 6.1440001 0 0
0 0 0 0
0 0 0 0
0 0 0 255
2.516 0.63999999 -0.59799999 16
2.5840001 0.65499997 -0.56900001 14
2.6619999 0.67199999 -0.542 13
2.7349999 0.68900001 -0.51099998 13
2.812 0.70599997 -0.47999999 15
2.8970001 0.72600001 -0.447 15
2.5109999 0.65700001 -0.59899998 16
2.575 0.671 -0.56999999 14
2.654 0.68900001 -0.54299998 15
2.7320001 0.70700002 -0.51300001 12
2.8010001 0.72299999 -0.47999999 14
2.8900001 0.74400002 -0.44800001 17
2.5 0.67199999 -0.59899998 16
2.5699999 0.68800002 -0.57200003 14
2.654 0.708 -0.54500002 14
2.7190001 0.72299999 -0.51300001 13
2.8010001 0.74199998 -0.48199999 15
2.891 0.764 -0.45100001 18
2.5020001 0.69 -0.602 18
2.563 0.704 -0.57200003 14
2.6489999 0.72500002 -0.54699999 14
2.7160001 0.74000001 -0.51499999 13
2.8 0.76099998 -0.484 14
2.8840001 0.78200001 -0.45199999 16
2.493 0.70499998 -0.602 17
2.5639999 0.722 -0.57499999 15
2.6400001 0.74000001 -0.54699999 14
2.7090001 0.75700003 -0.51599997 18
2.7920001 0.778 -0.48500001 13
2.8770001 0.80000001 -0.45300001 18
2.49 0.72100002 -0.60399997 16
2.5580001 0.73799998 -0.57599998 15
2.6389999 0.75800002 -0.54900002 14
2.707 0.77499998 -0.51800001 13
2.7839999 0.79400003 -0.486 14
2.8729999 0.81800002 -0.45500001 16
2.4849999 0.73699999 -0.60500002 20
2.5539999 0.75300002 -0.57700002 15
2.6340001 0.77399999 -0.55000001 14
2.7030001 0.792 -0.51899999 16
2.779 0.81099999 -0.48699999 14
2.865 0.83399999 -0.45500001 15
2.483 0.75300002 -0.60699999 18
2.55 0.76899999 -0.579 15
2.6259999 0.78899997 -0.551 14
2.697 0.80800003 -0.51999998 14
2.7750001 0.82800001 -0.48899999 17
2.862 0.852 -0.45699999 16
2.4760001 0.76700002 -0.60699999 17
2.5420001 0.78399998 -0.579 14
2.622 0.80500001 -0.55199999 13
2.6989999 0.82499999 -0.52200001 13
2.766 0.84299999 -0.48899999 13
2.8629999 0.87 -0.45899999 17
2.4679999 0.77999997 -0.60699999 19
2.5480001 0.80199999 -0.58200002 16
2.6170001 0.81999999 -0.55299997 15
2.694 0.84100002 -0.523 14
2.77 0.86199999 -0.49200001 14
2.8599999 0.88700002 -0.46000001 17
2.4660001 0.79500002 -0.60900003 17
2.5320001 0.81300002 -0.58099997 15
2.6110001 0.83399999 -0.55400002 13
2.6889999 0.85600001 -0.52399999 13
2.7690001 0.87800002 -0.493 14
2.8499999 0.90100002 -0.46000001 19
2.46 0.80900002 -0.60900003 17
2.5369999 0.82999998 -0.58399999 23
2.6099999 0.85000002 -0.55500001 14
2.6819999 0.87 -0.52499998 12
2.7620001 0.89300001 -0.49399999 14
2.848 0.91799998 -0.461 37
2.4590001 0.824 -0.611 17
2.526 0.84200001 -0.583 15
2.6029999 0.86400002 -0.55500001 13
2.6819999 0.88599998 -0.52600002 13
2.7520001 0.90600002 -0.493 15
2.8380001 0.93199998 -0.461 51
2.4530001 0.83700001 -0.611 18
2.5309999 0.85900003 -0.58600003 16
2.5999999 0.87800002 -0.55599999 15
2.677 0.89999998 -0.52700001 11
2.7539999 0.92299998 -0.495 14
2.836 0.94700003 -0.46200001 51
2.4530001 0.85100001 -0.61199999 19
2.5250001 0.87099999 -0.58600003 14
2.596 0.89200002 -0.55699998 13
2.6730001 0.91500002 -0.52700001 13
2.7490001 0.93699998 -0.49599999 16
2.832 0.96200001 -0.463 55
2.454 0.86500001 -0.61400002 18
2.5209999 0.884 -0.58600003 16
2.596 0.90600002 -0.55800003 13
2.6700001 0.92799997 -0.528 15
2.75 0.95200002 -0.49700001 24
2.8310001 0.977 -0.46399999 55
0 6.1440001 0 0
0 0 0 0
0 0 0 0
0 0 0 255
2.4489999 0.87699997 -0.61400002 17
2.5190001 0.89700001 -0.58700001 14
2.5929999 0.91900003 -0.55900002 15
2.6659999 0.94099998 -0.528 15
2.7420001 0.96499997 -0.49700001 47
2.826 0.991 -0.46399999 54
2.4430001 0.88800001 -0.61400002 19
2.5150001 0.91000003 -0.58700001 14
2.5899999 0.93199998 -0.55900002 15
2.6659999 0.95599997 -0.52899998 13
2.74 0.97799999 -0.49700001 50
2.8239999 1.005 -0.465 53
2.4400001 0.89999998 -0.61400002 17
2.5120001 0.92199999 -0.58700001 14
2.585 0.94400001 -0.55900002 14
2.6600001 0.96700001 -0.52899998 15
2.7379999 0.991 -0.49700001 50
2.8199999 1.018 -0.465 52
2.437 0.91100001 -0.61400002 18
2.513 0.935 -0.588 21
2.5880001 0.95700002 -0.56 14
2.661 0.98000002 -0.52999997 14
2.7349999 1.0039999 -0.49700001 50
2.8169999 1.03 -0.465 52
2.4419999 0.92500001 -0.616 19
2.5139999 0.94700003 -0.58899999 14
2.5840001 0.96799999 -0.56 14
2.6600001 0.99299997 -0.52999997 20
2.7320001 1.015 -0.49700001 51
2.822 1.046 -0.46599999 52
2.4389999 0.935 -0.616 16
2.51 0.95700002 -0.58899999 14
2.579 0.97799999 -0.55900002 16
2.6559999 1.003 -0.52899998 36
2.7309999 1.028 -0.49700001 46
2.8180001 1.057 -0.465 52
2.4349999 0.94400001 -0.61500001 18
2.507 0.96700001 -0.588 15
2.5780001 0.98900002 -0.55900002 15
2.652 1.0140001 -0.52899998 46
2.734 1.041 -0.498 46
2.819 1.069 -0.465 55
2.438 0.95599997 -0.616 17
2.51 0.97899997 -0.58899999 15
2.5829999 1.002 -0.56 14
2.652 1.025 -0.52899998 45
2.7309999 1.051 -0.49700001 46
2.8150001 1.079 -0.465 46
2.437 0.96499997 -0.616 16
2.5090001 0.98900002 -0.58899999 15
2.5780001 1.011 -0.55900002 15
2.654 1.036 -0.52899998 46
2.73 1.061 -0.49700001 47
2.819 1.092 -0.465 34
2.4319999 0.97299999 -0.61400002 15
2.5079999 0.99800003 -0.588 15
2.5799999 1.021 -0.55900002 16
2.6500001 1.044 -0.528 45
2.7320001 1.072 -0.49700001 48
2.8169999 1.102 -0.46399999 21
2.4349999 0.98299998 -0.61500001 18
2.507 1.006 -0.588 13
2.585 1.0319999 -0.56 27
2.6559999 1.056 -0.52899998 49
2.734 1.0829999 -0.49700001 48
2.819 1.113 -0.46399999 19
2.434 0.991 -0.61400002 16
2.5109999 1.017 -0.588 14
2.5840001 1.041 -0.55900002 47
2.648 1.062 -0.52600002 49
2.737 1.0930001 -0.49599999 48
2.823 1.124 -0.46399999 18
2.4360001 0.99900001 -0.61400002 17
2.507 1.023 -0.58600003 17
2.5810001 1.048 -0.55800003 46
2.655 1.073 -0.52700001 48
2.737 1.102 -0.49599999 47
2.825 1.133 -0.463 18
2.438 1.007 -0.61400002 17
2.5090001 1.031 -0.58600003 13
2.585 1.057 -0.55699998 47
2.652 1.079 -0.52499998 49
2.7390001 1.11 -0.495 48
2.8239999 1.141 -0.46200001 21
2.4349999 1.013 -0.61199999 18
2.5120001 1.039 -0.58600003 16
2.586 1.064 -0.55599999 47
2.6559999 1.0880001 -0.52499998 47
2.7360001 1.1160001 -0.493 40
2.825 1.149 -0.461 21
2.4389999 1.02 -0.61199999 19
2.5179999 1.0470001 -0.58600003 17
2.5840001 1.069 -0.55500001 46
2.6589999 1.095 -0.52399999 52
2.737 1.123 -0.49200001 26
2.829 1.1569999 -0.46000001 17
0 6.1440001 0 0
0 0 0 0
0 0 0 0
0 0 0 255
2.4419999 1.027 -0.611 14
2.517 1.052 -0.58399999 21
2.585 1.075 -0.55400002 49
2.6589999 1.101 -0.52200001 53
2.7420001 1.131 -0.491 17
2.832 1.164 -0.458 21
2.4400001 1.031 -0.60900003 16
2.5179999 1.057 -0.583 42
2.5899999 1.082 -0.55299997 50
2.6619999 1.108 -0.52100003 51
2.7479999 1.1390001 -0.49000001 15
2.8369999 1.1720001 -0.45699999 19
2.447 1.0369999 -0.60900003 18
2.5209999 1.063 -0.58200002 45
2.592 1.087 -0.551 50
2.668 1.114 -0.51999998 50
2.7539999 1.146 -0.48899999 15
2.8369999 1.176 -0.45500001 21
2.45 1.0420001 -0.60799998 17
2.5239999 1.067 -0.57999998 47
2.5929999 1.091 -0.55000001 52
2.665 1.1160001 -0.51800001 50
2.7539999 1.149 -0.48699999 18
2.842 1.182 -0.454 19
2.4489999 1.044 -0.60600001 17
2.523 1.0700001 -0.57800001 52
2.598 1.096 -0.54900002 52
2.6689999 1.1210001 -0.51700002 50
2.7590001 1.155 -0.486 18
2.846 1.187 -0.45199999 18
2.45 1.046 -0.60299999 17
2.5239999 1.072 -0.57599998 49
2.6040001 1.101 -0.54799998 53
2.678 1.127 -0.51599997 49
2.7620001 1.158 -0.484 15
2.8469999 1.1900001 -0.44999999 18
2.4590001 1.052 -0.60299999 16
2.53 1.076 -0.57499999 51
2.608 1.104 -0.546 53
2.6819999 1.13 -0.514 50
2.7650001 1.161 -0.48199999 16
2.8499999 1.192 -0.44800001 18
2.4590001 1.052 -0.60100001 17
2.5380001 1.08 -0.574 48
2.6110001 1.1059999 -0.54400003 53
2.6830001 1.131 -0.51200002 45
2.77 1.164 -0.47999999 16
2.8510001 1.194 -0.44600001 18
2.46 1.053 -0.59899998 16
2.5380001 1.08 -0.57200003 51
2.615 1.108 -0.542 54
2.6860001 1.133 -0.50999999 44
2.779 1.168 -0.479 15
2.8710001 1.202 -0.44600001 19
2.4690001 1.056 -0.59799999 18
2.539 1.08 -0.56900001 50
2.6159999 1.107 -0.54000002 51
2.688 1.133 -0.50700003 41
2.779 1.1670001 -0.47600001 15
2.8670001 1.2 -0.442 18
2.4690001 1.054 -0.59500003 18
2.543 1.08 -0.56699997 47
2.6229999 1.109 -0.53799999 49
2.6989999 1.136 -0.50599998 36
2.7920001 1.171 -0.47499999 16
2.8740001 1.202 -0.44 18
2.473 1.054 -0.59299999 18
2.549 1.08 -0.565 48
2.6340001 1.1109999 -0.53799999 53
2.704 1.136 -0.50400001 32
2.793 1.169 -0.472 16
2.875 1.2 -0.43700001 20
2.4849999 1.056 -0.59299999 21
2.55 1.0779999 -0.56300002 51
2.6359999 1.109 -0.53500003 52
2.7079999 1.135 -0.50199997 27
2.799 1.169 -0.47 16
2.881 1.199 -0.435 17
2.4909999 1.0549999 -0.59200001 24
2.552 1.075 -0.56 48
2.638 1.1059999 -0.53200001 53
2.71 1.132 -0.49900001 26
2.8050001 1.1670001 -0.46799999 17
2.888 1.198 -0.43200001 15
2.4949999 1.053 -0.58899999 22
2.5639999 1.076 -0.55900002 52
2.6429999 1.104 -0.52999997 53
2.72 1.131 -0.49700001 24
2.813 1.166 -0.46599999 19
2.895 1.197 -0.43000001 18
2.503 1.051 -0.588 23
2.573 1.075 -0.55800003 50
2.6459999 1.1 -0.52700001 51
2.7249999 1.1289999 -0.495 26
2.8169999 1.163 -0.463 18
2.904 1.1950001 -0.428 17
0 6.1440001 0 0
0 0 0 0
0 0 0 0
0 0 0 255
2.5009999 1.045 -0.58399999 19
2.576 1.071 -0.55500001 49
2.6530001 1.098 -0.52499998 52
2.73 1.125 -0.493 26
2.8199999 1.158 -0.46000001 17
2.9089999 1.191 -0.42500001 20
2.5079999 1.0420001 -0.58200002 22
2.579 1.066 -0.55199999 50
2.6600001 1.094 -0.523 52
2.7349999 1.1210001 -0.49000001 32
2.8280001 1.155 -0.458 19
2.918 1.188 -0.42300001 18
2.52 1.04 -0.58200002 19
2.5899999 1.063 -0.551 51
2.6659999 1.09 -0.52100003 51
2.7420001 1.1160001 -0.48800001 34
2.835 1.15 -0.456 19
2.921 1.182 -0.41999999 17
2.5209999 1.033 -0.57800001 18
2.595 1.058 -0.54900002 50
2.6719999 1.084 -0.51899999 51
2.75 1.1109999 -0.486 39
2.839 1.1440001 -0.45300001 19
2.9300001 1.177 -0.41800001 19
2.5250001 1.027 -0.57599998 19
2.6040001 1.054 -0.54799998 48
2.6789999 1.079 -0.51599997 50
2.7609999 1.108 -0.484 42
2.8510001 1.14 -0.45100001 15
2.938 1.171 -0.41499999 19
2.529 1.0190001 -0.57300001 19
2.6040001 1.045 -0.54400003 53
2.6789999 1.0700001 -0.51300001 50
2.7609999 1.098 -0.48100001 46
2.8529999 1.131 -0.44800001 17
2.9419999 1.163 -0.412 18
2.539 1.0140001 -0.57200003 18
2.6129999 1.039 -0.542 48
2.6889999 1.064 -0.51099998 50
2.7709999 1.092 -0.479 49
2.859 1.123 -0.44499999 16
2.95 1.155 -0.41 19
2.5469999 1.008 -0.56999999 21
2.6199999 1.0319999 -0.54000002 48
2.698 1.057 -0.509 51
2.783 1.086 -0.477 48
2.8699999 1.117 -0.44299999 18
2.9579999 1.148 -0.40700001 19
2.55 0.99800003 -0.56699997 18
2.6300001 1.025 -0.53899997 47
2.7019999 1.048 -0.50700003 50
2.7880001 1.077 -0.47499999 52
2.878 1.108 -0.44100001 18
2.961 1.137 -0.40400001 19
2.5569999 0.99000001 -0.56599998 18
2.6340001 1.015 -0.53600001 47
2.7160001 1.0420001 -0.50599998 52
2.7950001 1.068 -0.472 47
2.881 1.098 -0.43799999 16
2.9719999 1.1289999 -0.40200001 21
2.569 0.98400003 -0.565 20
2.645 1.008 -0.53500003 36
2.72 1.0319999 -0.50300002 52
2.803 1.059 -0.47 49
2.8900001 1.0880001 -0.43599999 16
2.9809999 1.119 -0.40000001 21
2.569 0.97100002 -0.56099999 22
2.6470001 0.99599999 -0.53200001 20
2.7249999 1.021 -0.50099999 51
2.8080001 1.048 -0.46799999 50
2.8940001 1.076 -0.433 18
2.984 1.107 -0.39700001 20
2.572 0.95999998 -0.55900002 19
2.6530001 0.98500001 -0.52999997 16
2.7309999 1.01 -0.498 52
2.8169999 1.038 -0.46599999 48
2.904 1.066 -0.43099999 19
2.993 1.095 -0.39500001 21
2.5829999 0.95099998 -0.55800003 20
2.661 0.97500002 -0.528 17
2.7379999 0.99900001 -0.49599999 52
2.822 1.025 -0.46399999 48
2.9089999 1.053 -0.42899999 27
3.0009999 1.0829999 -0.39199999 20
2.5880001 0.93900001 -0.55599999 19
2.6700001 0.96399999 -0.52700001 16
2.747 0.98799998 -0.495 54
2.8269999 1.013 -0.461 47
2.9130001 1.04 -0.426 44
3.0079999 1.071 -0.38999999 21
2.5929999 0.92699999 -0.55400002 21
2.671 0.94999999 -0.52399999 15
2.7509999 0.97399998 -0.49200001 55
2.8340001 1 -0.45899999 47
2.9260001 1.029 -0.42500001 48
3.0150001 1.057 -0.38800001 21
0 6.1440001 0 0
0 0 0 0
0 0 0 0
0 0 0 255
2.5940001 0.91299999 -0.551 18
2.677 0.93800002 -0.52200001 15
2.7509999 0.95899999 -0.48899999 45
2.8380001 0.986 -0.45699999 49
2.9300001 1.0140001 -0.42199999 50
3.0190001 1.0420001 -0.38499999 23
2.6040001 0.90200001 -0.55000001 19
2.681 0.92400002 -0.51999998 16
2.7679999 0.94999999 -0.48899999 21
2.846 0.97299999 -0.45500001 49
2.9400001 1.001 -0.421 48
3.0239999 1.027 -0.38299999 21
2.612 0.889 -0.54900002 19
2.6889999 0.91100001 -0.51899999 16
2.7709999 0.93400002 -0.48699999 17
2.8540001 0.958 -0.45300001 51
2.9419999 0.98500001 -0.41800001 52
3.026 1.01 -0.38 23
2.6159999 0.875 -0.54699999 18
2.694 0.89600003 -0.51599997 15
2.78 0.921 -0.486 17
2.859 0.94300002 -0.45100001 51
2.947 0.96899998 -0.41600001 49
3.0420001 0.99699998 -0.37900001 37
2.6210001 0.86000001 -0.54500002 19
2.698 0.88099998 -0.51499999 17
2.779 0.90399998 -0.48300001 15
2.8629999 0.92699999 -0.449 50
2.954 0.95300001 -0.41499999 52
3.0469999 0.98100001 -0.37799999 54
2.6300001 0.847 -0.54400003 18
2.7 0.86500001 -0.51200002 17
2.789 0.88999999 -0.48199999 13
2.8710001 0.912 -0.44800001 42
2.9590001 0.93699998 -0.41299999 50
3.0550001 0.96399999 -0.37599999 57
2.6340001 0.83200002 -0.542 17
2.7060001 0.85000002 -0.51099998 17
2.7950001 0.87400001 -0.47999999 13
2.8740001 0.89499998 -0.44600001 18
2.9649999 0.92000002 -0.41100001 50
3.059 0.94599998 -0.37400001 57
2.6400001 0.81599998 -0.54100001 18
2.7090001 0.833 -0.509 18
2.796 0.85600001 -0.47799999 14
2.878 0.87800002 -0.44400001 18
2.974 0.90399998 -0.41 50
3.0680001 0.92900002 -0.373 60
2.6440001 0.80000001 -0.53899997 19
2.7130001 0.81699997 -0.50700003 25
2.803 0.83999997 -0.477 16
2.8800001 0.86000001 -0.442 17
2.9790001 0.88599998 -0.40799999 51
3.073 0.91100001 -0.37099999 60
2.652 0.78500003 -0.53899997 20
2.7190001 0.801 -0.50599998 19
2.8039999 0.82200003 -0.47499999 14
2.8900001 0.84299999 -0.442 16
2.9809999 0.86699998 -0.40599999 46
3.0769999 0.89200002 -0.36899999 62
2.651 0.76700002 -0.53600001 20
2.723 0.78399998 -0.505 18
2.812 0.80500001 -0.47400001 16
2.8870001 0.82300001 -0.43900001 18
2.9860001 0.84799999 -0.405 23
3.0840001 0.87300003 -0.368 60
2.651 0.74900001 -0.53399998 18
2.727 0.76599997 -0.50400001 17
2.8099999 0.78500003 -0.472 17
2.8929999 0.80500001 -0.43799999 17
2.984 0.82700002 -0.403 15
3.0810001 0.85100001 -0.366 61
2.6570001 0.73199999 -0.53399998 19
2.7320001 0.74900001 -0.50300002 19
2.813 0.76700002 -0.47099999 20
2.9000001 0.787 -0.43700001 16
2.994 0.80900002 -0.40200001 18
3.0880001 0.83200002 -0.36500001 65
2.6600001 0.71399999 -0.53200001 20
2.743 0.73199999 -0.50300002 17
2.8139999 0.74800003 -0.46900001 21
2.9030001 0.76800001 -0.43599999 18
2.9960001 0.78899997 -0.40099999 16
3.096 0.81199998 -0.36399999 47
2.6689999 0.69800001 -0.53200001 19
2.7449999 0.713 -0.50099999 16
2.822 0.73000002 -0.46900001 24
2.905 0.74800003 -0.435 20
3.0050001 0.76999998 -0.40099999 19
3.102 0.792 -0.36300001 23
2.6719999 0.67900002 -0.53100002 20
2.7539999 0.69599998 -0.50099999 16
2.822 0.70999998 -0.46700001 27
2.9100001 0.72799999 -0.43399999 16
3.006 0.74900001 -0.39899999 18
3.1010001 0.76999998 -0.36199999 24
0 6.1440001 0 0
0 0 0 0
0 0 0 0
0 0 0 255
2.671 0.66000003 -0.52899998 18
2.7509999 0.676 -0.49900001 15
2.8280001 0.69099998 -0.46599999 20
2.911 0.708 -0.43200001 20
3.0039999 0.727 -0.398 22
3.102 0.74800003 -0.361 23
2.678 0.64200002 -0.52899998 17
2.7590001 0.65700001 -0.49900001 15
2.836 0.67199999 -0.46599999 19
2.9059999 0.685 -0.43000001 28
3.007 0.70599997 -0.39700001 22
3.1159999 0.72799999 -0.361 24
2.6819999 0.62300003 -0.528 18
2.7590001 0.63700002 -0.498 15
2.8410001 0.653 -0.46599999 17
2.9070001 0.66399997 -0.42899999 36
3.007 0.68400002 -0.39500001 21
3.1129999 0.70499998 -0.359 25
2.681 0.60299999 -0.52700001 19
2.757 0.616 -0.49599999 16
2.8440001 0.63200003 -0.465 15
2.9130001 0.64399999 -0.42899999 34
3.0090001 0.662 -0.39399999 29
3.1129999 0.68199998 -0.35800001 29
2.688 0.58399999 -0.52700001 18
2.7639999 0.597 -0.49599999 16
2.8510001 0.61199999 -0.465 16
2.9230001 0.62400001 -0.42899999 20
3.007 0.639 -0.39300001 34
3.115 0.65899998 -0.35699999 23
2.6919999 0.565 -0.52600002 17
2.7679999 0.57700002 -0.49599999 18
2.8510001 0.59100002 -0.46399999 17
2.9219999 0.602 -0.428 19
3.003 0.61500001 -0.391 47
3.1229999 0.63700002 -0.35699999 23
2.6919999 0.54400003 -0.52499998 19
2.7750001 0.55800003 -0.49599999 14
2.8540001 0.56999999 -0.463 16
2.9319999 0.58200002 -0.428 19
3.0050001 0.59299999 -0.391 33
3.1240001 0.61299998 -0.35699999 32
2.6930001 0.52399999 -0.52499998 18
2.7720001 0.53600001 -0.49399999 14
2.852 0.54799998 -0.46200001 18
2.937 0.56 -0.428 16
3.0109999 0.57099998 -0.391 27
3.122 0.58899999 -0.35499999 82
2.698 0.50400001 -0.52399999 20
2.7739999 0.51499999 -0.49399999 14
2.855 0.52600002 -0.461 18
2.9330001 0.537 -0.42699999 16
3.0280001 0.551 -0.39199999 24
3.122 0.565 -0.35499999 75
2.6930001 0.48300001 -0.523 25
2.776 0.49399999 -0.493 17
2.8559999 0.50400001 -0.461 13
2.9349999 0.51499999 -0.426 15
3.0320001 0.528 -0.39199999 20
3.125 0.542 -0.354 51
2.6949999 0.46200001 -0.52200001 19
2.779 0.47299999 -0.493 19
2.858 0.48199999 -0.46000001 13
2.9400001 0.493 -0.426 14
3.0339999 0.505 -0.391 21
3.1300001 0.51800001 -0.354 61
2.687 0.44 -0.51999998 20
2.7650001 0.44800001 -0.49000001 19
2.8499999 0.45899999 -0.45899999 21
2.9230001 0.46700001 -0.42300001 24
3.023 0.47999999 -0.389 42
3.1300001 0.493 -0.354 52
2.6949999 0.41999999 -0.52100003 25
2.7750001 0.428 -0.491 17
2.852 0.43700001 -0.458 17
2.927 0.44499999 -0.42300001 19
3.0179999 0.45500001 -0.38800001 28
3.135 0.47 -0.354 28
2.7019999 0.39899999 -0.52100003 22
2.783 0.40799999 -0.491 16
2.875 0.41800001 -0.461 15
2.947 0.42500001 -0.42500001 17
3.0239999 0.43200001 -0.389 29
3.138 0.44499999 -0.354 33
2.701 0.37799999 -0.51999998 17
2.793 0.38699999 -0.493 14
2.8789999 0.396 -0.461 17
2.9579999 0.403 -0.426 15
3.043 0.41100001 -0.391 23
3.1389999 0.41999999 -0.35299999 28
2.7060001 0.35699999 -0.52100003 19
2.7920001 0.36500001 -0.49200001 13
2.882 0.373 -0.461 14
2.9590001 0.37900001 -0.426 15
3.0510001 0.38800001 -0.391 19
3.145 0.396 -0.354 23
0 6.1440001 0 0
0 0 0 0
0 0 0 0
0 0 0 255
2.7079999 0.336 -0.52100003 16
2.796 0.34299999 -0.49200001 14
2.8770001 0.34900001 -0.46000001 12
2.957 0.35600001 -0.42500001 15
3.053 0.36399999 -0.391 19
3.1570001 0.37200001 -0.35499999 29
2.7149999 0.315 -0.52100003 17
2.7920001 0.31999999 -0.491 14
2.881 0.32699999 -0.46000001 14
2.9660001 0.333 -0.426 13
3.0580001 0.34 -0.391 18
3.155 0.347 -0.354 24
2.7160001 0.29300001 -0.52100003 15
2.802 0.29899999 -0.49200001 12
2.8840001 0.30399999 -0.46000001 11
2.9690001 0.30899999 -0.426 12
3.0599999 0.315 -0.391 19
3.1559999 0.32100001 -0.354 20
2.7160001 0.271 -0.52100003 16
2.802 0.27599999 -0.49200001 12
2.8840001 0.28099999 -0.46000001 11
2.967 0.285 -0.426 14
3.0610001 0.28999999 -0.391 17
3.158 0.296 -0.354 20
2.72 0.249 -0.52100003 16
2.8 0.25299999 -0.491 14
2.885 0.257 -0.46000001 10
2.974 0.26100001 -0.426 13
3.062 0.26499999 -0.391 19
3.155 0.27000001 -0.35299999 20
2.72 0.227 -0.52100003 18
2.8 0.23 -0.491 13
2.8900001 0.234 -0.46000001 11
2.9749999 0.237 -0.426 12
3.063 0.241 -0.391 17
3.1619999 0.245 -0.354 20
2.7249999 0.205 -0.52100003 16
2.8010001 0.207 -0.491 11
2.8900001 0.20999999 -0.46000001 11
2.977 0.213 -0.426 13
3.0669999 0.21600001 -0.391 15
3.164 0.219 -0.354 20
2.727 0.183 -0.52100003 16
2.8099999 0.185 -0.49200001 12
2.8929999 0.186 -0.46000001 13
2.973 0.18799999 -0.426 14
3.073 0.19 -0.391 14
3.165 0.192 -0.354 18
2.727 0.16 -0.52100003 19
2.8110001 0.162 -0.49200001 11
2.898 0.163 -0.46000001 11
2.984 0.164 -0.42699999 13
3.0710001 0.16500001 -0.391 15
3.1659999 0.16599999 -0.354 18
2.7290001 0.138 -0.52100003 19
2.813 0.139 -0.49200001 14
2.901 0.139 -0.461 12
2.9809999 0.139 -0.426 13
3.072 0.14 -0.391 14
3.1700001 0.14 -0.354 17
2.7349999 0.116 -0.52200001 13
2.8139999 0.116 -0.49200001 13
2.9000001 0.115 -0.46000001 11
2.983 0.115 -0.426 14
3.075 0.115 -0.391 14
3.1700001 0.114 -0.354 16
2.7409999 0.093999997 -0.523 18
2.8139999 0.092 -0.49200001 11
2.901 0.090999998 -0.46000001 11
2.987 0.090000004 -0.42699999 12
3.079 0.089000002 -0.391 14
3.181 0.088 -0.35499999 17
2.7360001 0.071000002 -0.52200001 14
2.819 0.068999998 -0.49200001 14
2.9059999 0.068000004 -0.461 11
2.9860001 0.066 -0.426 12
3.0810001 0.064000003 -0.391 15
3.1789999 0.061999999 -0.354 17
2.74 0.048 -0.52200001 13
2.8239999 0.046 -0.493 13
2.9059999 0.043000001 -0.461 11
2.994 0.041000001 -0.42699999 12
3.0810001 0.037999999 -0.391 15
3.1849999 0.035 -0.35499999 17
2.74 0.025 -0.52200001 13
2.823 0.022 -0.49200001 12
2.9089999 0.018999999 -0.461 12
2.993 0.016000001 -0.42699999 12
3.0869999 0.012 -0.39199999 15
3.181 0.0080000004 -0.354 17
2.7449999 0.0020000001 -0.523 14
2.8269999 -0.001 -0.493 12
2.908 -0.0049999999 -0.46000001 11
2.9949999 -0.0089999996 -0.42699999 14
3.0910001 -0.013 -0.39199999 19
3.1789999 -0.017999999 -0.35299999 18
0 6.1440001 0 0
0 0 0 0
0 0 0 0
0 0 0 255
2.744 -0.02 -0.52200001 16
2.8280001 -0.025 -0.493 12
2.915 -0.028999999 -0.461 11
2.9909999 -0.034000002 -0.426 11
3.0899999 -0.039000001 -0.391 15
3.1919999 -0.045000002 -0.354 18
2.747 -0.043000001 -0.52200001 15
2.826 -0.048 -0.49200001 11
2.9170001 -0.054000001 -0.461 10
2.993 -0.059 -0.426 13
3.0910001 -0.064999998 -0.391 13
3.194 -0.071999997 -0.354 20
2.7479999 -0.066 -0.523 14
2.832 -0.071999997 -0.493 10
2.915 -0.078000002 -0.461 10
3.003 -0.085000001 -0.42699999 12
3.092 -0.090999998 -0.391 16
3.197 -0.098999999 -0.354 18
2.7490001 -0.090000004 -0.52200001 13
2.835 -0.096000001 -0.493 9
2.9219999 -0.103 -0.461 10
3 -0.11 -0.426 12
3.0940001 -0.118 -0.391 14
3.1989999 -0.126 -0.354 18
2.7490001 -0.113 -0.52200001 13
2.835 -0.12 -0.493 11
2.9200001 -0.12800001 -0.461 11
3.0050001 -0.13600001 -0.42699999 12
3.0969999 -0.145 -0.391 14
3.2019999 -0.154 -0.354 18
2.757 -0.13699999 -0.523 16
2.8399999 -0.145 -0.493 10
2.928 -0.154 -0.46200001 11
3.0009999 -0.162 -0.426 12
3.099 -0.171 -0.391 14
3.2060001 -0.182 -0.354 17
2.757 -0.161 -0.523 14
2.835 -0.169 -0.49200001 11
2.921 -0.178 -0.46000001 11
3.007 -0.18799999 -0.426 12
3.1029999 -0.198 -0.391 15
3.2119999 -0.20999999 -0.354 20
2.757 -0.185 -0.523 13
2.845 -0.19400001 -0.49399999 13
2.9319999 -0.204 -0.46200001 11
3.01 -0.214 -0.426 12
3.098 -0.22499999 -0.38999999 15
3.2130001 -0.23800001 -0.354 19
2.7620001 -0.208 -0.523 12
2.849 -0.219 -0.49399999 11
2.934 -0.23 -0.46200001 10
3.0109999 -0.23999999 -0.426 13
3.108 -0.252 -0.38999999 17
3.2160001 -0.266 -0.354 19
2.7679999 -0.233 -0.52399999 12
2.846 -0.243 -0.493 11
2.9360001 -0.255 -0.46200001 10
3.016 -0.266 -0.426 13
3.1059999 -0.27900001 -0.38999999 24
3.2119999 -0.29300001 -0.35299999 20
2.766 -0.257 -0.523 13
2.8499999 -0.26899999 -0.493 11
2.9400001 -0.28099999 -0.46200001 10
3.0109999 -0.292 -0.42500001 17
3.109 -0.30599999 -0.38999999 17
3.2160001 -0.322 -0.35299999 20
2.763 -0.28099999 -0.523 14
2.845 -0.29300001 -0.49200001 12
2.9260001 -0.30500001 -0.45899999 16
3.02 -0.31999999 -0.426 13
3.1210001 -0.33500001 -0.391 18
3.2219999 -0.35100001 -0.35299999 21
2.7590001 -0.30399999 -0.52100003 14
2.845 -0.31799999 -0.491 15
2.937 -0.33199999 -0.46000001 10
3.0239999 -0.34599999 -0.426 14
3.118 -0.36199999 -0.38999999 16
3.227 -0.37900001 -0.352 20
2.7590001 -0.32800001 -0.52100003 20
2.8499999 -0.34299999 -0.49200001 12
2.9360001 -0.35800001 -0.46000001 11
3.026 -0.373 -0.42500001 14
3.115 -0.389 -0.38800001 17
3.2320001 -0.40799999 -0.352 22
2.7720001 -0.354 -0.523 15
2.8540001 -0.368 -0.49200001 12
2.9449999 -0.384 -0.46000001 13
3.029 -0.39899999 -0.42500001 13
3.1259999 -0.417 -0.389 16
3.234 -0.43700001 -0.352 22
2.77 -0.37799999 -0.52200001 13
2.8559999 -0.39300001 -0.49200001 12
2.948 -0.41 -0.46000001 14
3.0339999 -0.42699999 -0.42500001 13
3.135 -0.44600001 -0.38999999 16
3.237 -0.46599999 -0.35100001 19
0 6.1440001 0 0
0 0 0 0
0 0 0 0
0 0 0 255
2.77 -0.40200001 -0.52200001 13
2.8570001 -0.419 -0.49200001 13
2.948 -0.43599999 -0.46000001 14
3.033 -0.45300001 -0.42399999 14
3.1300001 -0.47299999 -0.38800001 14
3.2390001 -0.495 -0.35100001 20
2.7750001 -0.42699999 -0.52200001 16
2.8640001 -0.44499999 -0.49200001 13
2.9489999 -0.46200001 -0.45899999 16
3.0320001 -0.47999999 -0.42399999 12
3.1459999 -0.50300002 -0.389 17
3.247 -0.52499998 -0.35100001 20
2.78 -0.45199999 -0.523 15
2.8670001 -0.47099999 -0.49200001 14
2.9530001 -0.48899999 -0.45899999 15
3.0369999 -0.50800002 -0.42399999 14
3.142 -0.53100002 -0.38800001 15
3.2539999 -0.55500001 -0.34999999 24
2.7809999 -0.477 -0.523 15
2.869 -0.49700001 -0.49200001 13
2.9590001 -0.51599997 -0.46000001 13
3.039 -0.53500003 -0.42300001 15
3.1500001 -0.56 -0.38800001 16
3.25 -0.583 -0.34900001 18
2.783 -0.50300002 -0.523 15
2.872 -0.523 -0.49200001 13
2.96 -0.54299998 -0.45899999 13
3.0439999 -0.56300002 -0.42300001 15
3.152 -0.58899999 -0.38800001 14
3.2550001 -0.61400002 -0.34900001 19
2.789 -0.52899998 -0.523 14
2.878 -0.55000001 -0.493 12
2.967 -0.57099998 -0.46000001 11
3.0510001 -0.59200001 -0.42300001 13
3.1559999 -0.61799997 -0.38699999 16
3.2579999 -0.64399999 -0.34799999 20
2.793 -0.55400002 -0.523 14
2.878 -0.57599998 -0.49200001 13
2.9679999 -0.59799999 -0.45899999 12
3.053 -0.62 -0.42300001 14
3.164 -0.648 -0.38699999 14
3.2679999 -0.67500001 -0.34799999 19
2.799 -0.58099997 -0.52399999 13
2.881 -0.602 -0.49200001 13
2.9749999 -0.62599999 -0.45899999 12
3.056 -0.648 -0.42199999 14
3.1670001 -0.67699999 -0.38699999 15
3.2720001 -0.70599997 -0.347 19
2.7969999 -0.60600001 -0.523 12
2.888 -0.62900001 -0.49200001 11
2.974 -0.653 -0.45899999 12
3.0610001 -0.67699999 -0.42199999 13
3.174 -0.708 -0.38600001 15
3.2739999 -0.736 -0.34599999 17
2.799 -0.63200003 -0.523 12
2.885 -0.65499997 -0.491 13
2.9820001 -0.68199998 -0.45899999 14
3.0610001 -0.70499998 -0.421 15
3.174 -0.73699999 -0.38600001 15
3.2820001 -0.76800001 -0.34599999 18
2.8039999 -0.65799999 -0.523 15
2.8900001 -0.68300003 -0.49200001 11
2.9809999 -0.70899999 -0.458 14
3.0710001 -0.73500001 -0.42199999 12
3.178 -0.76700002 -0.38499999 15
3.2750001 -0.796 -0.34400001 18
2.803 -0.68300003 -0.523 11
2.892 -0.70999998 -0.491 13
2.9879999 -0.73799998 -0.458 14
3.076 -0.76499999 -0.42199999 13
3.1800001 -0.796 -0.384 15
3.29 -0.82999998 -0.345 17
2.812 -0.71100003 -0.52399999 16
2.898 -0.73699999 -0.49200001 14
2.9879999 -0.76499999 -0.458 13
3.0780001 -0.79299998 -0.421 13
3.1849999 -0.82700002 -0.384 17
3.296 -0.86199999 -0.34400001 19
2.813 -0.73799998 -0.52399999 13
2.901 -0.76499999 -0.49200001 13
2.9949999 -0.79500002 -0.458 17
3.0829999 -0.82300001 -0.421 14
3.191 -0.85799998 -0.38299999 17
3.3 -0.89399999 -0.34299999 20
2.8169999 -0.76499999 -0.52399999 17
2.904 -0.79299998 -0.491 13
2.994 -0.82200003 -0.45699999 14
3.089 -0.85399997 -0.421 15
3.191 -0.88800001 -0.382 17
3.3 -0.92500001 -0.34200001 21
2.823 -0.79299998 -0.52399999 14
2.9059999 -0.81999999 -0.491 15
2.9990001 -0.852 -0.45699999 16
3.0899999 -0.88300002 -0.41999999 15
3.1949999 -0.91900003 -0.382 18
3.3080001 -0.958 -0.34200001 25
0 6.1440001 0 0
0 0 0 0
0 0 0 0
0 0 0 255
2.826 -0.81999999 -0.52499998 18
2.9100001 -0.84799999 -0.491 13
2.9990001 -0.87900001 -0.456 14
3.098 -0.91399997 -0.41999999 14
3.201 -0.95099998 -0.382 15
3.3150001 -0.991 -0.34099999 21
2.826 -0.84600002 -0.52399999 18
2.915 -0.87699997 -0.491 15
3.0050001 -0.90899998 -0.456 13
3.1059999 -0.94499999 -0.41999999 14
3.21 -0.98299998 -0.38100001 18
3.319 -1.023 -0.34 20
2.8269999 -0.87300003 -0.52399999 14
2.918 -0.90499997 -0.491 15
3.01 -0.93800002 -0.456 14
3.1059999 -0.97399998 -0.419 14
3.2119999 -1.0140001 -0.38100001 18
3.326 -1.057 -0.34 22
2.835 -0.90100002 -0.52499998 15
2.9200001 -0.93300003 -0.491 17
3.0090001 -0.96700001 -0.456 17
3.108 -1.0039999 -0.419 16
3.214 -1.045 -0.38 20
3.326 -1.089 -0.338 23
2.8340001 -0.92799997 -0.52399999 17
2.924 -0.96200001 -0.491 16
3.013 -0.99699998 -0.456 14
3.1159999 -1.036 -0.419 15
3.224 -1.079 -0.38 16
3.3380001 -1.124 -0.338 19
2.839 -0.95599997 -0.52499998 14
