# .PCD v0.7 - Point Cloud Data file format
VERSION 0.7
FIELDS x y z intensity
SIZE 4 4 4 4
TYPE F F F F
COUNT 1 1 1 1
WIDTH 1619
HEIGHT 1
VIEWPOINT 0 0 0 1 0 0 0
POINTS 1619
DATA ascii
3.0309999 0.235 -0.41600001 14
3.1240001 0.24600001 -0.38 17
2.6989999 0.21600001 -0.542 13
2.7739999 0.226 -0.51300001 12
2.852 0.236 -0.48100001 11
2.9289999 0.24699999 -0.44800001 10
3.03 0.259 -0.41600001 14
3.1229999 0.27200001 -0.38 17
2.684 0.237 -0.54000002 13
2.77 0.248 -0.51200002 13
2.8499999 0.259 -0.48199999 13
2.937 0.271 -0.44999999 10
3.027 0.28400001 -0.41600001 15
3.1210001 0.29699999 -0.38 17
2.6860001 0.25999999 -0.54100001 14
2.7720001 0.27200001 -0.51300001 13
2.855 0.28299999 -0.48300001 10
2.9289999 0.29499999 -0.449 11
3.0309999 0.30899999 -0.417 14
3.118 0.322 -0.38 17
2.6830001 0.28200001 -0.54100001 15
2.766 0.294 -0.51300001 12
2.8510001 0.30700001 -0.48300001 11
2.9319999 0.31900001 -0.44999999 13
3.023 0.333 -0.417 14
3.118 0.347 -0.38100001 16
2.688 0.30500001 -0.542 12
2.767 0.317 -0.514 12
2.848 0.33000001 -0.48300001 11
2.931 0.34299999 -0.45100001 12
3.02 0.35699999 -0.417 15
3.109 0.37200001 -0.38100001 17
2.684 0.32699999 -0.542 14
2.766 0.34 -0.51499999 12
2.8429999 0.35299999 -0.48300001 11
2.925 0.36700001 -0.45100001 13
3.02 0.382 -0.41800001 14
3.1070001 0.39700001 -0.38100001 16
2.6800001 0.34999999 -0.54299998 13
2.753 0.36199999 -0.51300001 12
2.8399999 0.37599999 -0.484 11
2.921 0.38999999 -0.45100001 12
3.0120001 0.40599999 -0.41800001 13
3.1029999 0.42199999 -0.382 17
2.674 0.37099999 -0.54299998 14
2.756 0.38499999 -0.51499999 12
2.8410001 0.40000001 -0.48500001 11
2.9200001 0.414 -0.45199999 12
3.0090001 0.43000001 -0.41800001 14
3.095 0.44600001 -0.382 18
2.6719999 0.39399999 -0.54400003 15
2.7550001 0.40900001 -0.51599997 13
2.839 0.42399999 -0.486 10
2.9159999 0.43799999 -0.45300001 13
3.007 0.45500001 -0.41999999 17
3.0940001 0.472 -0.38299999 16
0 6.1440001 0 0
0 0 0 0
0 0 0 0
0 0 0 255
2.671 0.417 -0.54500002 14
2.7509999 0.43099999 -0.51700002 12
2.839 0.44800001 -0.48699999 12
2.9119999 0.46200001 -0.454 12
2.9990001 0.479 -0.41999999 13
3.095 0.498 -0.38499999 17
2.6630001 0.43799999 -0.54500002 15
2.7509999 0.45500001 -0.51800001 14
2.826 0.46900001 -0.48699999 12
2.9070001 0.486 -0.454 11
2.9960001 0.50300002 -0.421 12
3.085 0.52100003 -0.38499999 18
2.661 0.46000001 -0.546 15
2.7460001 0.477 -0.51899999 13
2.825 0.493 -0.48800001 12
2.9000001 0.509 -0.45500001 12
2.987 0.52700001 -0.421 14
3.085 0.54699999 -0.38699999 19
2.6600001 0.48300001 -0.54799998 16
2.7390001 0.49900001 -0.51899999 11
2.8169999 0.51599997 -0.48899999 12
2.895 0.53200001 -0.456 15
2.984 0.551 -0.42199999 18
3.0810001 0.57200003 -0.38800001 19
2.651 0.50400001 -0.54799998 15
2.7349999 0.52200001 -0.51999998 12
2.8139999 0.53899997 -0.49000001 12
2.8929999 0.55599999 -0.45699999 12
2.9760001 0.57499999 -0.42300001 13
3.0669999 0.59500003 -0.38800001 16
2.6500001 0.52700001 -0.55000001 16
2.7320001 0.54500002 -0.52200001 13
2.8099999 0.56199998 -0.491 12
2.8859999 0.57999998 -0.458 13
2.9749999 0.60000002 -0.42500001 12
3.0650001 0.62099999 -0.389 15
2.6470001 0.55000001 -0.551 13
2.7279999 0.56800002 -0.523 13
2.8050001 0.58499998 -0.493 12
2.8829999 0.60299999 -0.46000001 12
2.9679999 0.62300003 -0.426 14
3.056 0.64399999 -0.38999999 15
2.645 0.57200003 -0.55299997 13
2.723 0.58999997 -0.52499998 12
2.8 0.60799998 -0.49399999 13
2.8759999 0.62699997 -0.461 12
2.9690001 0.64899999 -0.428 15
3.0510001 0.66900003 -0.39199999 16
2.6359999 0.59299999 -0.55400002 16
2.7160001 0.61199999 -0.52600002 13
2.793 0.63099998 -0.495 12
2.868 0.64899999 -0.46200001 13
2.961 0.67199999 -0.42899999 14
3.046 0.69400001 -0.39300001 16
2.6259999 0.61400002 -0.55400002 15
2.71 0.634 -0.52700001 12
2.786 0.653 -0.49599999 14
2.8659999 0.67299998 -0.46399999 17
2.961 0.69700003 -0.43200001 14
3.043 0.71899998 -0.39500001 20
2.6210001 0.63499999 -0.55599999 18
2.7019999 0.65600002 -0.528 15
2.78 0.676 -0.498 14
2.859 0.69599998 -0.465 14
2.9489999 0.72000003 -0.433 16
3.0339999 0.74299997 -0.39700001 19
2.619 0.65799999 -0.55800003 19
2.6960001 0.67799997 -0.52999997 14
2.78 0.69999999 -0.5 17
2.8529999 0.72000003 -0.46700001 13
2.937 0.74199998 -0.433 15
3.03 0.76800001 -0.39899999 17
2.6129999 0.68000001 -0.55900002 20
2.6919999 0.70099998 -0.53200001 16
2.767 0.72100002 -0.50099999 16
2.8510001 0.74400002 -0.46900001 14
2.937 0.76700002 -0.43599999 17
3.0190001 0.79100001 -0.40000001 18
2.605 0.70099998 -0.56099999 19
2.687 0.72299999 -0.53299999 14
2.7639999 0.74400002 -0.50300002 14
2.8399999 0.76499999 -0.47 14
2.9260001 0.79000002 -0.43700001 18
3.016 0.81599998 -0.40200001 19
2.599 0.722 -0.56199998 20
2.677 0.74400002 -0.53399998 16
2.7579999 0.76700002 -0.505 15
2.8299999 0.78799999 -0.47099999 15
2.915 0.81199998 -0.43799999 20
3.0220001 0.84299999 -0.40599999 26
2.5940001 0.74400002 -0.56400001 20
2.675 0.76700002 -0.537 16
2.7449999 0.787 -0.505 13
2.826 0.81099999 -0.47400001 15
2.915 0.83700001 -0.44100001 16
3.0109999 0.866 -0.40700001 43
0 6.1440001 0 0
0 0 0 0
0 0 0 0
0 0 0 255
2.586 0.76499999 -0.56599998 22
2.6689999 0.78899997 -0.53899997 16
2.7520001 0.81300002 -0.50999999 13
2.8150001 0.83200002 -0.47499999 14
2.9070001 0.86000001 -0.44299999 18
2.9949999 0.88700002 -0.40799999 50
2.5810001 0.78600001 -0.56800002 20
2.6600001 0.80900002 -0.54000002 17
2.7320001 0.83099997 -0.509 13
2.8110001 0.85500002 -0.477 17
2.898 0.88300002 -0.44400001 19
2.993 0.912 -0.41 50
2.572 0.80599999 -0.56900001 19
2.651 0.82999998 -0.542 15
2.7309999 0.85500002 -0.51200002 15
2.8050001 0.87800002 -0.479 13
2.895 0.90600002 -0.447 37
2.9820001 0.935 -0.412 49
2.5669999 0.82700002 -0.57099998 21
2.6470001 0.852 -0.54400003 16
2.72 0.875 -0.51300001 14
2.802 0.90100002 -0.48199999 16
2.8859999 0.92900002 -0.449 49
2.9760001 0.95899999 -0.414 50
2.5639999 0.84899998 -0.574 22
2.6389999 0.87300003 -0.546 16
2.7119999 0.89700001 -0.51499999 15
2.7939999 0.92400002 -0.484 16
2.8800001 0.95200002 -0.45100001 47
2.9690001 0.98199999 -0.41600001 50
2.5510001 0.86799997 -0.57499999 20
2.6270001 0.89300001 -0.54699999 14
2.707 0.91900003 -0.51700002 14
2.7869999 0.94599998 -0.486 32
2.8740001 0.97500002 -0.45300001 47
2.961 1.005 -0.41800001 50
2.546 0.889 -0.57700002 18
2.6259999 0.91600001 -0.55000001 14
2.701 0.94099998 -0.51999998 14
2.776 0.96600002 -0.48699999 48
2.8629999 0.99599999 -0.45500001 45
2.9549999 1.028 -0.421 41
2.546 0.912 -0.58099997 17
2.6170001 0.93599999 -0.55199999 16
2.6949999 0.96200001 -0.52200001 16
2.7679999 0.98799998 -0.48899999 50
2.858 1.0190001 -0.45699999 47
2.9400001 1.048 -0.42199999 21
2.529 0.92900002 -0.58099997 17
2.608 0.95599997 -0.55299997 14
2.6900001 0.98400003 -0.52399999 20
2.766 1.011 -0.49200001 48
2.8499999 1.041 -0.45899999 46
2.938 1.073 -0.42500001 18
2.53 0.95099998 -0.58399999 23
2.602 0.977 -0.55599999 15
2.6789999 1.0039999 -0.52600002 46
2.7539999 1.03 -0.493 51
2.8410001 1.063 -0.461 42
2.9289999 1.095 -0.42699999 18
2.5179999 0.97000003 -0.58499998 21
2.5940001 0.99699998 -0.55699998 16
2.665 1.022 -0.52600002 52
2.7509999 1.054 -0.49599999 48
2.8269999 1.082 -0.46200001 34
2.921 1.117 -0.42899999 18
2.506 0.98699999 -0.58600003 19
2.595 1.02 -0.56099999 17
2.6619999 1.044 -0.52899998 54
2.744 1.075 -0.49900001 48
2.8239999 1.105 -0.465 21
2.914 1.14 -0.43099999 17
2.5079999 1.011 -0.58999997 20
2.5810001 1.038 -0.56199998 46
2.658 1.066 -0.53200001 55
2.733 1.094 -0.5 54
2.8210001 1.128 -0.46799999 17
2.9059999 1.161 -0.433 18
2.497 1.028 -0.59100002 22
2.5650001 1.054 -0.56199998 56
2.6500001 1.086 -0.53399998 56
2.7249999 1.115 -0.50199997 56
2.809 1.148 -0.46900001 19
2.898 1.183 -0.435 20
2.49 1.048 -0.59399998 22
2.556 1.072 -0.56400001 56
2.642 1.1059999 -0.53600001 58
2.7190001 1.136 -0.50400001 35
2.8039999 1.17 -0.472 19
2.892 1.206 -0.43799999 16
2.4860001 1.068 -0.59600002 36
2.5510001 1.0930001 -0.56599998 59
2.6340001 1.126 -0.53799999 58
2.711 1.156 -0.50599998 17
2.8 1.193 -0.47499999 18
2.8859999 1.228 -0.44 17
0 6.1440001 0 0
0 0 0 0
0 0 0 0
0 0 0 255
2.4660001 1.081 -0.59500003 67
2.5409999 1.1109999 -0.56699997 55
2.6300001 1.147 -0.54100001 60
2.7019999 1.176 -0.50800002 18
2.793 1.214 -0.477 18
2.881 1.251 -0.44299999 17
2.4590001 1.1 -0.597 61
2.5439999 1.135 -0.57200003 70
2.6210001 1.166 -0.542 57
2.698 1.197 -0.51099998 17
2.783 1.233 -0.47799999 17
2.8670001 1.2690001 -0.44400001 21
2.454 1.12 -0.60000002 60
2.539 1.155 -0.574 66
2.6140001 1.1849999 -0.54400003 27
2.6919999 1.2180001 -0.51300001 16
2.776 1.2539999 -0.47999999 15
2.8599999 1.29 -0.44600001 19
2.4460001 1.138 -0.60100001 61
2.517 1.166 -0.57300001 57
2.6129999 1.2079999 -0.54799998 16
2.6849999 1.238 -0.51499999 17
2.7709999 1.275 -0.48300001 18
2.855 1.312 -0.44800001 19
2.441 1.156 -0.60299999 60
2.527 1.193 -0.57800001 84
2.6070001 1.227 -0.55000001 17
2.674 1.256 -0.51599997 19
2.7650001 1.295 -0.48500001 16
2.8429999 1.33 -0.449 19
2.434 1.174 -0.60500002 61
2.5139999 1.209 -0.579 57
2.5940001 1.243 -0.55000001 18
2.6689999 1.276 -0.51800001 17
2.7550001 1.314 -0.486 14
2.8440001 1.354 -0.45300001 19
2.4300001 1.193 -0.60799998 61
2.5079999 1.227 -0.58099997 31
2.5910001 1.263 -0.55299997 17
2.6689999 1.298 -0.52200001 16
2.7539999 1.337 -0.48899999 16
2.835 1.374 -0.454 17
2.421 1.21 -0.60900003 59
2.506 1.247 -0.58399999 17
2.5869999 1.283 -0.55500001 18
2.6600001 1.316 -0.523 16
2.7409999 1.353 -0.49000001 19
2.8280001 1.393 -0.456 21
2.4189999 1.229 -0.61199999 59
2.4979999 1.2640001 -0.58499998 18
2.5769999 1.3 -0.55599999 16
2.6530001 1.334 -0.52499998 15
2.734 1.372 -0.49200001 15
2.823 1.414 -0.458 19
2.408 1.243 -0.61199999 58
2.493 1.2819999 -0.58700001 19
2.572 1.318 -0.55800003 17
2.645 1.351 -0.52600002 14
2.734 1.3940001 -0.495 16
2.8180001 1.434 -0.46000001 20
2.4100001 1.2640001 -0.616 32
2.4909999 1.301 -0.58999997 18
2.5669999 1.336 -0.56 16
2.6389999 1.37 -0.528 14
2.7249999 1.411 -0.49599999 14
2.812 1.4529999 -0.461 20
2.408 1.283 -0.61799997 22
2.4820001 1.317 -0.59100002 18
2.5610001 1.353 -0.56199998 16
2.6329999 1.387 -0.52899998 14
2.7219999 1.431 -0.498 18
2.802 1.469 -0.46200001 20
2.404 1.3 -0.62 25
2.477 1.334 -0.59200001 18
2.5569999 1.3710001 -0.56300002 16
2.6289999 1.406 -0.53100002 17
2.7119999 1.446 -0.498 15
2.8 1.49 -0.46399999 18
2.398 1.316 -0.62199998 23
2.474 1.351 -0.59399998 17
2.5480001 1.386 -0.56400001 15
2.6259999 1.424 -0.53299999 19
2.711 1.466 -0.50099999 15
2.793 1.507 -0.465 20
2.3970001 1.3329999 -0.62400001 19
2.471 1.368 -0.59600002 19
2.5439999 1.403 -0.56599998 16
2.6170001 1.438 -0.53299999 18
2.701 1.4809999 -0.50099999 18
2.7880001 1.525 -0.46700001 19
2.3940001 1.35 -0.62599999 22
2.4630001 1.383 -0.597 19
2.5450001 1.423 -0.56800002 18
2.6129999 1.456 -0.53500003 16
2.694 1.497 -0.50199997 18
2.7820001 1.5420001 -0.46799999 24
0 6.1440001 0 0
0 0 0 0
0 0 0 0
0 0 0 255
2.3870001 1.364 -0.62699997 21
2.4560001 1.396 -0.597 18
2.5320001 1.434 -0.56800002 18
2.6099999 1.473 -0.53600001 15
2.6949999 1.517 -0.50400001 15
2.78 1.561 -0.46900001 21
2.382 1.378 -0.62800002 24
2.4560001 1.415 -0.60000002 17
2.533 1.4529999 -0.56999999 17
2.6070001 1.49 -0.53799999 15
2.6919999 1.534 -0.505 15
2.777 1.579 -0.47099999 22
2.378 1.393 -0.62900001 24
2.45 1.428 -0.60000002 16
2.526 1.466 -0.56999999 18
2.6070001 1.508 -0.53899997 14
2.6830001 1.5470001 -0.505 16
2.7720001 1.595 -0.472 21
2.3759999 1.408 -0.63 19
2.45 1.4450001 -0.602 16
2.5209999 1.4809999 -0.57099998 19
2.599 1.521 -0.53899997 16
2.6849999 1.566 -0.50700003 15
2.7709999 1.613 -0.47299999 20
2.3710001 1.421 -0.63099998 22
2.4430001 1.457 -0.602 17
2.52 1.4960001 -0.57200003 21
2.5899999 1.5319999 -0.53899997 15
2.6789999 1.58 -0.50800002 17
2.77 1.63 -0.47400001 20
2.3710001 1.436 -0.63200003 20
2.444 1.473 -0.60399997 16
2.516 1.51 -0.57300001 16
2.5929999 1.55 -0.54100001 16
2.6719999 1.592 -0.50700003 17
2.7620001 1.642 -0.47400001 20
2.358 1.443 -0.63 19
2.4389999 1.485 -0.60399997 18
2.517 1.525 -0.574 17
2.5899999 1.564 -0.542 18
2.6789999 1.613 -0.50999999 17
2.763 1.659 -0.47499999 19
2.362 1.459 -0.63300002 24
2.437 1.497 -0.60399997 17
2.5139999 1.538 -0.57499999 19
2.5869999 1.577 -0.542 17
2.6760001 1.626 -0.50999999 17
2.7550001 1.67 -0.47400001 19
2.362 1.472 -0.634 19
2.437 1.511 -0.60500002 17
2.507 1.548 -0.574 18
2.5840001 1.589 -0.542 15
2.6730001 1.6390001 -0.50999999 17
2.756 1.686 -0.47499999 21
2.3599999 1.483 -0.634 19
2.4300001 1.52 -0.60500002 16
2.5139999 1.5650001 -0.57599998 17
2.5780001 1.599 -0.54100001 15
2.6689999 1.65 -0.50999999 16
2.7550001 1.699 -0.47499999 19
2.352 1.49 -0.63200003 19
2.4319999 1.533 -0.60600001 15
2.5079999 1.574 -0.57499999 16
2.5810001 1.614 -0.542 16
2.668 1.663 -0.50999999 16
2.76 1.716 -0.47600001 21
2.3570001 1.505 -0.634 28
2.4260001 1.541 -0.60500002 18
2.5120001 1.5880001 -0.57700002 18
2.582 1.626 -0.54299998 17
2.6659999 1.674 -0.50999999 14
2.757 1.727 -0.47600001 21
2.348 1.5089999 -0.63200003 18
2.4300001 1.554 -0.60600001 15
2.5090001 1.598 -0.57599998 16
2.579 1.635 -0.542 16
2.668 1.687 -0.50999999 16
2.7520001 1.7359999 -0.47499999 19
2.352 1.522 -0.63300002 19
2.428 1.563 -0.60500002 16
2.5079999 1.607 -0.57599998 16
2.5810001 1.648 -0.54299998 15
2.6659999 1.696 -0.509 15
2.7609999 1.752 -0.47600001 21
2.355 1.5319999 -0.634 19
2.431 1.573 -0.60600001 17
2.507 1.615 -0.57499999 16
2.5810001 1.6569999 -0.542 15
2.6659999 1.706 -0.509 17
2.7490001 1.755 -0.47299999 19
2.352 1.539 -0.63300002 18
2.4289999 1.581 -0.60500002 15
2.51 1.626 -0.57499999 15
2.5799999 1.665 -0.542 15
2.6659999 1.715 -0.509 14
2.7609999 1.772 -0.47499999 19
0 6.1440001 0 0
0 0 0 0
0 0 0 0
0 0 0 255
2.3529999 1.546 -0.63200003 20
2.428 1.587 -0.60399997 16
2.507 1.631 -0.574 17
2.5780001 1.671 -0.54000002 14
2.674 1.728 -0.509 17
2.7639999 1.7819999 -0.47400001 21
2.358 1.556 -0.63300002 17
2.434 1.597 -0.60500002 19
2.513 1.642 -0.57499999 17
2.5829999 1.682 -0.54000002 15
2.668 1.7309999 -0.50700003 17
2.7650001 1.79 -0.47299999 21
2.355 1.559 -0.63200003 18
2.428 1.599 -0.602 16
2.5150001 1.649 -0.574 16
2.585 1.689 -0.54000002 16
2.6689999 1.738 -0.50599998 16
2.767 1.798 -0.472 22
2.3610001 1.568 -0.63200003 20
2.428 1.604 -0.60100001 15
2.5120001 1.652 -0.57200003 16
2.586 1.694 -0.53899997 16
2.677 1.749 -0.50599998 17
2.7690001 1.804 -0.47099999 21
2.358 1.569 -0.63 18
2.4349999 1.613 -0.60100001 14
2.513 1.6569999 -0.57099998 16
2.5880001 1.7 -0.537 15
2.6830001 1.757 -0.50599998 17
2.767 1.808 -0.46900001 20
2.362 1.575 -0.62900001 18
2.4419999 1.62 -0.60100001 14
2.517 1.663 -0.56999999 16
2.592 1.705 -0.537 15
2.678 1.757 -0.50300002 17
2.77 1.813 -0.46799999 20
2.3640001 1.5779999 -0.62800002 17
2.4400001 1.62 -0.59899998 16
2.5250001 1.669 -0.56999999 16
2.592 1.7079999 -0.53500003 16
2.677 1.758 -0.50099999 17
2.7690001 1.814 -0.46599999 21
2.362 1.577 -0.62599999 16
2.4400001 1.6210001 -0.59799999 17
2.5250001 1.67 -0.56800002 16
2.596 1.711 -0.53399998 16
2.6849999 1.7640001 -0.50099999 16
2.779 1.822 -0.46599999 21
2.375 1.586 -0.62699997 16
2.4460001 1.625 -0.597 17
2.5280001 1.6720001 -0.56699997 17
2.6010001 1.714 -0.53299999 16
2.688 1.767 -0.49900001 16
2.783 1.825 -0.46399999 21
2.3759999 1.586 -0.625 16
2.454 1.6289999 -0.59600002 15
2.5309999 1.673 -0.565 17
2.6040001 1.715 -0.53100002 17
2.6889999 1.766 -0.49700001 16
2.7880001 1.827 -0.463 21
2.3770001 1.584 -0.62300003 17
2.4560001 1.6289999 -0.59500003 15
2.5280001 1.669 -0.56199998 19
2.6059999 1.715 -0.52899998 18
2.701 1.772 -0.49700001 16
2.789 1.826 -0.46000001 20
2.3800001 1.5829999 -0.62099999 18
2.4579999 1.627 -0.59299999 15
2.536 1.6720001 -0.56199998 18
2.6110001 1.715 -0.528 16
2.7030001 1.77 -0.49399999 16
2.793 1.825 -0.458 19
2.3800001 1.58 -0.61900002 18
2.4660001 1.6289999 -0.59200001 14
2.5420001 1.671 -0.56 19
2.6140001 1.7130001 -0.52600002 16
2.707 1.7690001 -0.493 16
2.799 1.825 -0.45699999 21
2.3900001 1.581 -0.61900002 17
2.4679999 1.625 -0.58999997 15
2.5480001 1.67 -0.55900002 17
2.622 1.7130001 -0.52399999 16
2.71 1.766 -0.49000001 14
2.8069999 1.825 -0.45500001 19
2.3959999 1.579 -0.61699998 16
2.47 1.62 -0.58700001 15
2.556 1.67 -0.55800003 18
2.6259999 1.71 -0.52200001 17
2.711 1.76 -0.48800001 15
2.8150001 1.824 -0.454 20
2.395 1.572 -0.61400002 19
2.48 1.62 -0.58700001 15
2.5539999 1.6619999 -0.55400002 17
2.6329999 1.707 -0.52100003 14
2.724 1.761 -0.48699999 16
2.8180001 1.819 -0.45100001 20
0 6.1440001 0 0
0 0 0 0
0 0 0 0
0 0 0 255
2.405 1.571 -0.61400002 17
2.487 1.617 -0.58499998 15
2.559 1.6569999 -0.55199999 15
2.6329999 1.699 -0.51800001 15
2.7290001 1.756 -0.48500001 17
2.8239999 1.814 -0.449 20
2.4089999 1.5650001 -0.61199999 18
2.483 1.6059999 -0.58200002 15
2.566 1.653 -0.551 15
2.642 1.696 -0.51700002 17
2.7349999 1.751 -0.48300001 16
2.825 1.8049999 -0.44600001 18
2.4119999 1.558 -0.60900003 17
2.4879999 1.6 -0.57999998 18
2.569 1.645 -0.54799998 17
2.6500001 1.691 -0.51499999 14
2.7420001 1.7460001 -0.48100001 17
2.8329999 1.8 -0.44400001 18
2.421 1.554 -0.60799998 16
2.5 1.597 -0.579 16
2.576 1.6390001 -0.54699999 18
2.651 1.681 -0.51200002 15
2.7490001 1.739 -0.479 17
2.8399999 1.793 -0.442 18
2.425 1.545 -0.60600001 19
2.507 1.59 -0.57800001 14
2.5739999 1.627 -0.54299998 19
2.6619999 1.676 -0.51099998 15
2.7550001 1.7309999 -0.477 18
2.8399999 1.78 -0.43900001 19
2.4300001 1.536 -0.60399997 16
2.503 1.576 -0.57300001 14
2.5869999 1.622 -0.54299998 16
2.664 1.665 -0.50800002 15
2.76 1.721 -0.47499999 16
2.8499999 1.774 -0.43799999 19
2.4349999 1.527 -0.602 18
2.5120001 1.568 -0.57200003 14
2.5910001 1.6109999 -0.54000002 14
2.6689999 1.655 -0.50599998 15
2.7650001 1.71 -0.47299999 17
2.858 1.7640001 -0.43599999 21
2.4430001 1.5190001 -0.60100001 17
2.52 1.5599999 -0.57099998 15
2.5999999 1.604 -0.53899997 16
2.678 1.646 -0.505 19
2.7679999 1.697 -0.47 16
2.8640001 1.753 -0.43399999 20
2.45 1.5089999 -0.59899998 15
2.523 1.548 -0.56800002 15
2.602 1.59 -0.53600001 15
2.681 1.633 -0.50199997 16
2.776 1.687 -0.46900001 16
2.872 1.742 -0.43200001 19
2.4530001 1.497 -0.597 16
2.53 1.536 -0.56599998 15
2.6110001 1.58 -0.53500003 15
2.6900001 1.623 -0.50099999 16
2.7820001 1.674 -0.46599999 16
2.8740001 1.726 -0.42899999 19
2.4549999 1.482 -0.59399998 17
2.5369999 1.526 -0.565 15
2.6159999 1.567 -0.53299999 17
2.687 1.605 -0.49700001 16
2.7850001 1.659 -0.46399999 16
2.8729999 1.7079999 -0.426 20
2.4619999 1.471 -0.59200001 18
2.543 1.513 -0.56300002 17
2.6229999 1.5549999 -0.53100002 16
2.6989999 1.595 -0.49700001 16
2.7920001 1.645 -0.46200001 16
2.8859999 1.698 -0.42500001 20
2.4660001 1.457 -0.58999997 22
2.546 1.497 -0.56099999 15
2.628 1.54 -0.52999997 14
2.7 1.5779999 -0.49399999 14
2.8010001 1.633 -0.461 16
2.892 1.683 -0.42399999 22
2.471 1.443 -0.588 19
2.5480001 1.482 -0.55800003 20
2.6300001 1.524 -0.52700001 17
2.711 1.566 -0.493 15
2.8039999 1.6160001 -0.45899999 16
2.902 1.669 -0.42199999 27
2.4809999 1.431 -0.588 18
2.5599999 1.47 -0.55800003 16
2.6389999 1.511 -0.52600002 15
2.7190001 1.552 -0.49200001 16
2.8110001 1.6 -0.45699999 17
2.8970001 1.646 -0.419 19
2.4879999 1.4170001 -0.58600003 19
2.5610001 1.4529999 -0.55500001 17
2.6440001 1.494 -0.52399999 16
2.723 1.534 -0.49000001 16
2.819 1.584 -0.456 19
2.904 1.63 -0.417 18
0 6.1440001 0 0
0 0 0 0
0 0 0 0
0 0 0 255
2.494 1.402 -0.58499998 17
2.5699999 1.439 -0.55400002 16
2.652 1.479 -0.523 15
2.7260001 1.516 -0.48800001 15
2.829 1.5700001 -0.45500001 17
2.911 1.612 -0.41600001 22
2.4949999 1.3839999 -0.58200002 21
2.5699999 1.419 -0.55199999 16
2.658 1.462 -0.52100003 16
2.7309999 1.498 -0.486 18
2.825 1.546 -0.45199999 19
2.9170001 1.5930001 -0.414 20
2.4990001 1.3660001 -0.57999998 18
2.576 1.403 -0.55000001 16
2.6570001 1.442 -0.51899999 17
2.74 1.482 -0.48500001 20
2.832 1.528 -0.45100001 18
2.9230001 1.575 -0.41299999 20
2.503 1.348 -0.579 17
2.586 1.388 -0.55000001 19
2.6630001 1.424 -0.51800001 16
2.743 1.4630001 -0.484 18
2.8369999 1.5089999 -0.449 19
2.9260001 1.553 -0.41100001 19
2.5090001 1.332 -0.57800001 19
2.5910001 1.37 -0.54900002 16
2.671 1.4069999 -0.51700002 16
2.7449999 1.441 -0.48199999 16
2.8440001 1.49 -0.44800001 17
2.937 1.536 -0.41100001 19
2.5150001 1.314 -0.57599998 16
2.596 1.351 -0.54699999 16
2.6789999 1.3890001 -0.51599997 14
2.7550001 1.425 -0.48100001 14
2.846 1.4680001 -0.447 20
2.9389999 1.5140001 -0.41 20
2.516 1.295 -0.574 18
2.598 1.331 -0.546 15
2.6789999 1.368 -0.514 15
2.7579999 1.404 -0.47999999 15
2.8469999 1.446 -0.44499999 18
2.9489999 1.495 -0.40900001 21
2.529 1.28 -0.57499999 18
2.599 1.3099999 -0.54400003 16
2.6860001 1.349 -0.51300001 16
2.7620001 1.383 -0.47799999 16
2.858 1.427 -0.44499999 19
2.9449999 1.4680001 -0.40700001 22
2.526 1.257 -0.57200003 19
2.6059999 1.2920001 -0.54299998 17
2.6860001 1.327 -0.51099998 13
2.7639999 1.3609999 -0.477 16
2.8570001 1.403 -0.44299999 18
2.954 1.448 -0.40599999 21
2.5280001 1.2359999 -0.57099998 18
2.6129999 1.272 -0.542 14
2.691 1.306 -0.50999999 17
2.7709999 1.341 -0.477 15
2.8599999 1.38 -0.442 18
2.9549999 1.423 -0.405 20
2.536 1.2180001 -0.56999999 25
2.615 1.251 -0.54100001 15
2.6919999 1.283 -0.509 16
2.773 1.318 -0.47499999 14
2.8710001 1.3609999 -0.442 19
2.9590001 1.4 -0.40400001 20
2.5339999 1.196 -0.56800002 53
2.6199999 1.23 -0.54000002 16
2.6989999 1.263 -0.509 16
2.779 1.2970001 -0.47499999 17
2.8640001 1.3329999 -0.43900001 17
2.967 1.378 -0.40400001 23
2.543 1.177 -0.56800002 57
2.618 1.207 -0.53799999 15
2.697 1.239 -0.50700003 16
2.7809999 1.273 -0.47400001 17
2.8759999 1.313 -0.44 19
2.971 1.354 -0.40400001 21
2.533 1.151 -0.565 51
2.6229999 1.186 -0.53799999 21
2.7019999 1.217 -0.50599998 15
2.7850001 1.251 -0.47299999 15
2.8670001 1.284 -0.43799999 18
2.974 1.329 -0.403 22
2.54 1.131 -0.565 49
2.6210001 1.1619999 -0.53600001 49
2.7079999 1.196 -0.50599998 16
2.789 1.228 -0.47299999 15
2.8770001 1.263 -0.43799999 18
2.973 1.302 -0.40200001 24
2.546 1.1109999 -0.56400001 48
2.6289999 1.142 -0.53600001 51
2.714 1.175 -0.50599998 18
2.793 1.205 -0.472 17
2.8800001 1.239 -0.43799999 19
2.974 1.277 -0.40099999 21
0 6.1440001 0 0
0 0 0 0
0 0 0 0
0 0 0 255
2.5510001 1.09 -0.56400001 51
2.6300001 1.119 -0.53500003 50
2.714 1.15 -0.505 19
2.7939999 1.1799999 -0.47099999 17
2.881 1.214 -0.43700001 18
2.977 1.251 -0.40099999 23
2.559 1.071 -0.565 53
2.6329999 1.097 -0.53500003 52
2.7149999 1.126 -0.50400001 52
2.7969999 1.1569999 -0.47099999 17
2.8829999 1.189 -0.43599999 17
2.9849999 1.228 -0.40200001 21
2.563 1.049 -0.56400001 49
2.6329999 1.073 -0.53399998 52
2.7160001 1.103 -0.50300002 52
2.796 1.131 -0.47 17
2.888 1.165 -0.43700001 19
2.98 1.199 -0.40000001 22
2.5669999 1.028 -0.56400001 21
2.6400001 1.052 -0.53399998 46
2.723 1.081 -0.50400001 53
2.7980001 1.107 -0.47 25
2.8900001 1.14 -0.43599999 22
2.9809999 1.1720001 -0.40000001 19
2.5710001 1.006 -0.56400001 18
2.642 1.029 -0.53399998 48
2.7219999 1.056 -0.50300002 54
2.803 1.0829999 -0.47 50
2.888 1.113 -0.43599999 20
2.9809999 1.145 -0.40000001 23
2.573 0.98299998 -0.56400001 21
2.651 1.008 -0.53500003 27
2.7260001 1.033 -0.50300002 51
2.8099999 1.061 -0.47099999 49
2.8900001 1.087 -0.435 20
2.9920001 1.123 -0.40099999 24
2.575 0.96100003 -0.56300002 19
2.652 0.98500001 -0.53399998 16
2.7219999 1.007 -0.50199997 54
2.8110001 1.036 -0.47 52
2.8959999 1.063 -0.43599999 34
2.987 1.094 -0.40000001 21
2.5780001 0.93800002 -0.56300002 15
2.658 0.963 -0.53500003 14
2.727 0.98400003 -0.50199997 46
2.813 1.011 -0.47 46
2.901 1.039 -0.43700001 52
2.987 1.066 -0.40000001 21
2.5799999 0.91600001 -0.56300002 15
2.6559999 0.93800002 -0.53399998 15
2.7349999 0.96200001 -0.50300002 17
2.812 0.98500001 -0.47 47
2.9000001 1.012 -0.43599999 48
2.99 1.041 -0.40099999 23
2.5780001 0.89200002 -0.56199998 16
2.6530001 0.91299999 -0.53299999 14
2.734 0.93699998 -0.50300002 14
2.813 0.95999998 -0.47 44
2.898 0.98500001 -0.43599999 49
2.993 1.0140001 -0.40099999 49
2.5799999 0.86900002 -0.56199998 17
2.661 0.89099997 -0.53399998 13
2.7349999 0.912 -0.50199997 14
2.816 0.935 -0.47 34
2.901 0.95999998 -0.43599999 47
2.9960001 0.98799998 -0.40099999 55
2.586 0.847 -0.56199998 17
2.6559999 0.866 -0.53299999 13
2.737 0.88800001 -0.50300002 13
2.8110001 0.90799999 -0.46900001 14
2.9030001 0.93400002 -0.43700001 49
2.9920001 0.95899999 -0.40099999 56
2.585 0.82300001 -0.56199998 17
2.661 0.84299999 -0.53299999 14
2.7409999 0.86400002 -0.50300002 13
2.813 0.88300002 -0.47 16
2.9070001 0.90899998 -0.43700001 44
2.993 0.93199998 -0.40099999 58
2.5769999 0.79699999 -0.56 16
2.6630001 0.81900001 -0.53299999 19
2.743 0.83999997 -0.50300002 11
2.816 0.85799998 -0.47 17
2.905 0.88200003 -0.43700001 20
2.997 0.90600002 -0.40200001 60
2.5840001 0.77600002 -0.56099999 16
2.6630001 0.79500002 -0.53299999 14
2.7490001 0.81599998 -0.50400001 12
2.8139999 0.83200002 -0.47 14
2.9089999 0.85699999 -0.43799999 19
3.0009999 0.88 -0.403 61
2.5910001 0.75400001 -0.56199998 18
2.6630001 0.77100003 -0.53299999 13
2.7490001 0.79100001 -0.50400001 13
2.8169999 0.80699998 -0.47 16
2.904 0.82800001 -0.43700001 16
3 0.852 -0.403 34
0 6.1440001 0 0
0 0 0 0
0 0 0 0
0 0 0 255
2.5929999 0.73100001 -0.56300002 17
2.6689999 0.74800003 -0.53399998 14
2.744 0.76499999 -0.50400001 13
2.8210001 0.78299999 -0.47099999 15
2.9089999 0.80299997 -0.43799999 19
2.9979999 0.82499999 -0.403 22
2.595 0.708 -0.56300002 16
2.6730001 0.72500002 -0.53500003 13
2.7409999 0.73900002 -0.50300002 12
2.822 0.75700003 -0.47099999 14
2.9070001 0.77600002 -0.43799999 16
2.997 0.79699999 -0.40400001 21
2.5969999 0.685 -0.56300002 17
2.6670001 0.699 -0.53399998 14
2.747 0.71600002 -0.50400001 13
2.826 0.73199999 -0.472 14
2.9119999 0.75099999 -0.43900001 17
2.9990001 0.76999998 -0.40400001 22
2.5940001 0.66000003 -0.56300002 14
2.6700001 0.67500001 -0.53399998 12
2.7490001 0.69099998 -0.505 12
2.8210001 0.70599997 -0.472 15
2.9100001 0.72399998 -0.43900001 15
2.993 0.74199998 -0.40400001 21
2.5929999 0.63700002 -0.56199998 20
2.6730001 0.65200001 -0.53500003 14
2.7509999 0.667 -0.505 13
2.826 0.68099999 -0.47299999 14
2.908 0.69700003 -0.44 21
3.0020001 0.71600002 -0.40599999 22
2.598 0.61400002 -0.56300002 15
2.6719999 0.62800002 -0.53500003 13
2.7479999 0.64099997 -0.505 15
2.8199999 0.65399998 -0.472 14
2.908 0.671 -0.44 16
2.9979999 0.68800002 -0.40599999 25
2.598 0.59100002 -0.56300002 14
2.677 0.60500002 -0.53600001 14
2.7539999 0.61799997 -0.50599998 16
2.826 0.63 -0.47400001 16
2.914 0.64600003 -0.44100001 19
3.0009999 0.66100001 -0.40700001 24
2.5940001 0.56699997 -0.56300002 16
2.675 0.57999998 -0.53600001 12
2.7550001 0.59299999 -0.50700003 13
2.822 0.60399997 -0.47299999 13
2.9130001 0.61900002 -0.442 19
2.9990001 0.634 -0.40700001 23
2.6029999 0.54500002 -0.56400001 16
2.6800001 0.55699998 -0.537 12
2.753 0.56800002 -0.50700003 12
2.8280001 0.57999998 -0.47400001 14
2.9119999 0.59299999 -0.442 18
3.0009999 0.60699999 -0.40799999 22
2.6040001 0.52200001 -0.565 14
2.677 0.53200001 -0.53600001 12
2.7460001 0.542 -0.505 11
2.822 0.55299997 -0.47400001 12
2.9089999 0.56599998 -0.442 15
3 0.57999998 -0.40799999 18
2.599 0.49700001 -0.56400001 15
2.6789999 0.509 -0.537 13
2.7520001 0.51800001 -0.50700003 11
2.8299999 0.52899998 -0.47600001 12
2.9059999 0.53899997 -0.442 15
3 0.55299997 -0.40900001 25
2.599 0.47400001 -0.56400001 14
2.677 0.484 -0.537 14
2.753 0.49399999 -0.50700003 11
2.8269999 0.50300002 -0.47499999 12
2.9100001 0.514 -0.44299999 14
2.9979999 0.52600002 -0.40900001 20
2.599 0.45100001 -0.56400001 13
2.6800001 0.461 -0.53799999 12
2.753 0.46900001 -0.50800002 11
2.8340001 0.479 -0.477 13
2.9159999 0.48899999 -0.44400001 14
3.0020001 0.49900001 -0.41 20
2.6040001 0.428 -0.56599998 13
2.6789999 0.43599999 -0.53799999 12
2.753 0.44400001 -0.50800002 13
2.8340001 0.45300001 -0.477 11
2.9130001 0.46200001 -0.44400001 14
3.007 0.47299999 -0.41100001 21
2.6029999 0.405 -0.565 14
2.6800001 0.41299999 -0.53799999 11
2.756 0.41999999 -0.509 11
2.8329999 0.428 -0.477 12
2.915 0.43700001 -0.44499999 16
3.0009999 0.44600001 -0.41100001 18
2.5999999 0.38100001 -0.565 13
2.675 0.38800001 -0.53799999 12
2.7509999 0.39500001 -0.50800002 13
2.8340001 0.403 -0.47799999 12
2.9170001 0.41100001 -0.44600001 15
3.0020001 0.419 -0.412 21
0 6.1440001 0 0
0 0 0 0
0 0 0 0
0 0 0 255
2.5999999 0.35800001 -0.565 16
2.6730001 0.36399999 -0.537 13
2.7520001 0.37099999 -0.509 12
2.835 0.37799999 -0.47799999 11
2.9170001 0.384 -0.44600001 15
3.01 0.39300001 -0.41299999 20
2.602 0.33500001 -0.56599998 18
2.674 0.34 -0.53799999 14
2.747 0.345 -0.50800002 14
2.8310001 0.352 -0.47799999 12
2.9159999 0.359 -0.44600001 16
3.0050001 0.36500001 -0.41299999 21
2.596 0.31099999 -0.565 17
2.665 0.315 -0.53600001 11
2.7479999 0.32100001 -0.509 12
2.8269999 0.32600001 -0.47799999 13
2.914 0.33199999 -0.44600001 14
3.0039999 0.33899999 -0.41299999 19
0 0 0 0
2.6570001 0.29100001 -0.53500003 15
2.733 0.29499999 -0.50599998 12
2.8199999 0.30000001 -0.477 10
2.9070001 0.30599999 -0.44600001 16
3.0020001 0.31200001 -0.41299999 20
2.5899999 0.264 -0.56400001 14
2.6700001 0.26800001 -0.53799999 11
2.7390001 0.271 -0.50700003 12
2.8050001 0.27399999 -0.47499999 12
2.8900001 0.278 -0.44400001 24
2.9879999 0.28299999 -0.412 40
2.6010001 0.243 -0.56599998 15
2.6730001 0.245 -0.53799999 14
2.753 0.248 -0.50999999 11
2.8310001 0.25099999 -0.47999999 12
2.9070001 0.25400001 -0.447 17
2.987 0.257 -0.412 37
2.6059999 0.22 -0.56800002 14
2.6789999 0.222 -0.54000002 11
2.7590001 0.22499999 -0.51200002 11
2.832 0.226 -0.47999999 11
2.915 0.229 -0.44800001 14
3.003 0.23199999 -0.41499999 24
2.6070001 0.197 -0.56800002 14
2.6830001 0.199 -0.54100001 12
2.7590001 0.2 -0.51200002 11
2.835 0.20200001 -0.48100001 11
2.9170001 0.20299999 -0.449 13
3.007 0.205 -0.41600001 18
2.609 0.17399999 -0.56900001 14
2.6849999 0.175 -0.54100001 11
2.7650001 0.176 -0.51300001 10
2.8410001 0.177 -0.48199999 11
2.9230001 0.178 -0.44999999 14
3.01 0.17900001 -0.417 16
2.608 0.15099999 -0.56800002 15
2.684 0.15099999 -0.542 12
2.7650001 0.152 -0.51300001 10
2.839 0.152 -0.48199999 10
2.921 0.152 -0.44999999 13
3.0090001 0.152 -0.417 19
2.6099999 0.12800001 -0.56900001 13
2.6849999 0.12800001 -0.542 12
2.7620001 0.127 -0.51300001 12
2.8410001 0.127 -0.48300001 11
2.9230001 0.126 -0.45100001 13
3.0139999 0.126 -0.41800001 17
2.6140001 0.105 -0.56999999 13
2.691 0.104 -0.54299998 10
2.7650001 0.103 -0.514 10
2.842 0.102 -0.48300001 15
2.9260001 0.101 -0.45100001 13
3.0150001 0.1 -0.41800001 21
2.619 0.082999997 -0.57099998 14
2.687 0.081 -0.54299998 12
2.7690001 0.079000004 -0.51499999 10
2.8410001 0.077 -0.48300001 11
2.9260001 0.075000003 -0.45100001 15
3.0139999 0.072999999 -0.41800001 18
2.6170001 0.059999999 -0.57099998 11
2.691 0.057 -0.54400003 9
2.7690001 0.055 -0.51499999 10
2.8440001 0.052000001 -0.484 11
2.924 0.048999999 -0.45100001 14
3.017 0.046999998 -0.419 17
2.615 0.035999998 -0.57099998 13
2.6930001 0.034000002 -0.54400003 11
2.7720001 0.030999999 -0.51599997 10
2.845 0.027000001 -0.484 9
2.9219999 0.024 -0.45100001 15
3.016 0.02 -0.419 20
2.6170001 0.014 -0.57099998 13
2.691 0.0099999998 -0.54400003 11
2.77 0.0060000001 -0.51499999 10
2.8440001 0.0020000001 -0.484 11
2.9289999 -0.001 -0.45199999 14
3.016 -0.0049999999 -0.419 20
0 6.1440001 0 0
0 0 0 0
0 0 0 0
0 0 0 255
2.6129999 -0.0080000004 -0.57099998 13
2.6919999 -0.012 -0.54400003 10
2.77 -0.017000001 -0.51599997 10
2.8510001 -0.022 -0.48500001 11
2.9319999 -0.026000001 -0.45300001 16
3.0190001 -0.032000002 -0.41999999 17
2.618 -0.030999999 -0.57200003 13
2.697 -0.035999998 -0.54500002 13
2.7739999 -0.041000001 -0.51700002 11
2.849 -0.046 -0.48500001 10
2.9300001 -0.052000001 -0.45300001 16
3.0190001 -0.057999998 -0.41999999 21
2.6199999 -0.054000001 -0.57200003 14
2.694 -0.059 -0.54500002 10
2.7709999 -0.064999998 -0.51599997 11
2.849 -0.071000002 -0.48500001 10
2.9330001 -0.078000002 -0.45300001 13
3.0179999 -0.085000001 -0.41999999 17
2.618 -0.077 -0.57200003 13
2.6989999 -0.082999997 -0.546 10
2.773 -0.089000002 -0.51700002 10
2.8499999 -0.096000001 -0.48500001 10
2.934 -0.103 -0.454 14
3.023 -0.111 -0.41999999 17
2.618 -0.098999999 -0.57200003 14
2.697 -0.106 -0.546 12
2.7750001 -0.114 -0.51700002 11
2.8559999 -0.121 -0.48699999 11
2.931 -0.12899999 -0.45300001 14
3.026 -0.138 -0.421 17
2.6210001 -0.122 -0.57300001 12
2.698 -0.13 -0.546 12
2.7739999 -0.138 -0.51700002 12
2.858 -0.146 -0.48699999 10
2.934 -0.155 -0.454 14
3.0250001 -0.164 -0.421 21
2.619 -0.145 -0.57300001 15
2.7 -0.154 -0.54699999 11
2.779 -0.162 -0.51800001 10
2.859 -0.171 -0.48699999 13
2.931 -0.18000001 -0.45300001 17
3.03 -0.191 -0.421 19
2.619 -0.168 -0.57300001 14
2.6989999 -0.177 -0.54699999 10
2.7820001 -0.186 -0.51899999 10
2.855 -0.19499999 -0.48699999 11
2.938 -0.206 -0.45500001 14
3.0320001 -0.21699999 -0.42199999 21
2.6210001 -0.191 -0.57300001 14
2.7019999 -0.2 -0.54699999 13
2.78 -0.20999999 -0.51800001 11
2.858 -0.22 -0.48699999 13
2.9360001 -0.23100001 -0.454 17
3.03 -0.243 -0.421 21
2.625 -0.214 -0.574 16
2.7 -0.22400001 -0.54699999 12
2.7839999 -0.235 -0.51899999 10
2.858 -0.245 -0.48699999 14
2.937 -0.257 -0.45500001 15
3.0309999 -0.27000001 -0.42199999 19
2.6259999 -0.236 -0.57499999 14
2.698 -0.24699999 -0.54699999 12
2.7850001 -0.259 -0.51899999 13
2.8559999 -0.27000001 -0.48699999 13
2.9389999 -0.28200001 -0.45500001 16
3.0250001 -0.29499999 -0.421 29
2.625 -0.259 -0.57499999 14
2.7030001 -0.271 -0.54799998 11
2.7820001 -0.28299999 -0.51899999 12
2.8559999 -0.294 -0.48699999 16
2.9330001 -0.30700001 -0.454 19
3.017 -0.31999999 -0.41999999 30
2.619 -0.28099999 -0.574 15
2.6960001 -0.29300001 -0.54699999 16
2.7720001 -0.30500001 -0.51700002 12
2.845 -0.31799999 -0.48500001 14
2.925 -0.331 -0.45300001 18
3.0150001 -0.34599999 -0.419 24
2.6140001 -0.303 -0.57300001 13
2.6930001 -0.31600001 -0.546 12
2.7590001 -0.32800001 -0.51499999 16
2.8340001 -0.34099999 -0.484 20
2.927 -0.35699999 -0.45300001 26
3.03 -0.37400001 -0.421 30
0 0 0 0
0 0 0 0
2.7650001 -0.352 -0.51599997 15
2.8510001 -0.368 -0.48699999 19
2.9430001 -0.384 -0.456 22
3.043 -0.40200001 -0.42300001 23
0 0 0 0
2.7030001 -0.36399999 -0.54900002 21
2.78 -0.37799999 -0.51899999 15
2.859 -0.39300001 -0.48800001 15
2.9489999 -0.41 -0.45699999 20
3.0409999 -0.428 -0.42300001 23
0 6.1440001 0 0
0 0 0 0
0 0 0 0
0 0 0 255
2.6240001 -0.37200001 -0.57599998 18
2.704 -0.38699999 -0.54900002 14
2.7839999 -0.403 -0.51999998 11
2.8640001 -0.419 -0.48899999 15
2.9519999 -0.43599999 -0.45699999 19
3.04 -0.454 -0.42300001 26
2.631 -0.396 -0.57700002 18
2.707 -0.41100001 -0.55000001 17
2.7839999 -0.42699999 -0.51999998 17
2.868 -0.44400001 -0.49000001 14
2.9519999 -0.461 -0.45699999 24
3.0439999 -0.48100001 -0.42300001 21
2.632 -0.41800001 -0.57800001 17
2.711 -0.435 -0.551 16
2.786 -0.45100001 -0.52100003 14
2.8629999 -0.46700001 -0.48899999 16
2.96 -0.48800001 -0.458 23
3.046 -0.50700003 -0.42399999 23
2.632 -0.44100001 -0.57800001 16
2.717 -0.45899999 -0.55199999 13
2.7909999 -0.47499999 -0.52200001 15
2.8640001 -0.49200001 -0.49000001 16
2.9560001 -0.51300001 -0.458 18
3.0480001 -0.53299999 -0.42399999 25
2.6359999 -0.46399999 -0.57999998 15
2.7179999 -0.48199999 -0.55299997 14
2.786 -0.498 -0.52100003 14
2.8670001 -0.51700002 -0.49000001 15
2.9619999 -0.53899997 -0.45899999 18
3.05 -0.56 -0.42500001 24
2.635 -0.486 -0.57999998 15
2.7179999 -0.505 -0.55299997 17
2.7980001 -0.52399999 -0.52399999 17
2.869 -0.542 -0.491 14
2.96 -0.56400001 -0.45899999 16
3.0510001 -0.58600003 -0.42500001 21
2.642 -0.50999999 -0.58200002 19
2.714 -0.528 -0.55299997 12
2.796 -0.54799998 -0.52399999 13
2.8770001 -0.56800002 -0.493 14
2.9660001 -0.58999997 -0.46000001 19
3.0569999 -0.61299998 -0.426 23
2.6389999 -0.53200001 -0.58200002 13
2.717 -0.551 -0.55400002 14
2.793 -0.57099998 -0.52399999 14
2.872 -0.59100002 -0.49200001 16
2.9679999 -0.616 -0.461 18
3.0599999 -0.63999999 -0.42699999 24
2.6359999 -0.55400002 -0.58200002 16
2.7190001 -0.57499999 -0.55500001 14
2.8010001 -0.59600002 -0.52600002 12
2.8740001 -0.616 -0.493 16
2.9660001 -0.63999999 -0.461 17
3.056 -0.66500002 -0.426 19
2.6429999 -0.57800001 -0.58399999 16
2.7190001 -0.59799999 -0.55599999 14
2.802 -0.62 -0.52600002 12
2.8829999 -0.64200002 -0.495 15
2.9679999 -0.66600001 -0.46200001 16
3.059 -0.69099998 -0.42699999 21
2.6370001 -0.59899998 -0.583 15
2.7149999 -0.62 -0.55500001 12
2.8010001 -0.64300001 -0.52700001 12
2.8789999 -0.66600001 -0.495 13
2.9719999 -0.69199997 -0.463 17
3.063 -0.71799999 -0.428 21
2.6400001 -0.62199998 -0.58399999 14
2.717 -0.64300001 -0.55599999 13
2.799 -0.667 -0.52700001 14
2.878 -0.68900001 -0.495 14
2.9719999 -0.71700001 -0.463 17
3.0599999 -0.74299997 -0.428 20
2.6429999 -0.64499998 -0.58600003 15
2.717 -0.66600001 -0.55699998 14
2.803 -0.69099998 -0.52899998 14
2.8740001 -0.713 -0.495 15
2.9679999 -0.741 -0.463 19
3.0569999 -0.76800001 -0.428 24
2.642 -0.667 -0.58700001 19
2.723 -0.69 -0.55900002 14
2.803 -0.71399999 -0.52899998 14
2.881 -0.73799998 -0.49700001 13
2.9690001 -0.76599997 -0.46399999 18
3.059 -0.79400003 -0.42899999 23
2.6459999 -0.69 -0.588 16
2.7219999 -0.713 -0.56 15
2.802 -0.73699999 -0.52999997 12
2.8789999 -0.76200002 -0.49700001 15
2.973 -0.79100001 -0.465 16
3.066 -0.82099998 -0.43000001 20
2.6500001 -0.713 -0.58999997 15
2.724 -0.736 -0.56099999 17
2.8050001 -0.76099998 -0.53100002 13
2.8759999 -0.78500003 -0.49700001 16
2.9649999 -0.81400001 -0.465 20
3.0580001 -0.84500003 -0.43000001 24
0 6.1440001 0 0
0 0 0 0
0 0 0 0
0 0 0 255
2.6459999 -0.73400003 -0.58999997 16
2.724 -0.759 -0.56199998 15
2.802 -0.78399998 -0.53200001 14
2.8789999 -0.81 -0.49900001 15
2.971 -0.83999997 -0.46599999 18
3.069 -0.87300003 -0.43200001 24
2.6440001 -0.755 -0.59100002 17
2.724 -0.78100002 -0.56300002 16
2.802 -0.80699998 -0.53299999 14
2.882 -0.83399999 -0.50099999 14
2.974 -0.86500001 -0.46799999 19
3.0669999 -0.89700001 -0.433 23
2.645 -0.778 -0.59299999 17
2.7260001 -0.80400002 -0.565 15
2.803 -0.83099997 -0.53399998 17
2.881 -0.85799998 -0.50099999 17
2.973 -0.889 -0.46900001 18
3.0699999 -0.92299998 -0.43399999 23
2.6440001 -0.79900002 -0.59399998 18
2.723 -0.82599998 -0.565 15
2.8050001 -0.85399997 -0.53500003 13
2.8789999 -0.88 -0.50199997 16
2.9690001 -0.912 -0.46900001 17
3.0699999 -0.94800001 -0.435 22
2.642 -0.81999999 -0.59500003 20
2.721 -0.847 -0.56599998 15
2.8010001 -0.87599999 -0.53600001 16
2.882 -0.90499997 -0.50400001 16
2.9719999 -0.93699998 -0.47099999 17
3.0669999 -0.972 -0.43599999 24
2.645 -0.84200001 -0.597 15
2.7249999 -0.87099999 -0.56800002 21
2.8010001 -0.898 -0.537 14
2.875 -0.926 -0.50400001 13
2.9649999 -0.95899999 -0.47099999 19
3.0669999 -0.99699998 -0.43700001 22
2.642 -0.86299998 -0.59799999 16
2.7190001 -0.89099997 -0.56900001 14
2.7980001 -0.92000002 -0.53799999 13
2.8800001 -0.94999999 -0.50599998 16
2.967 -0.98299998 -0.47299999 15
3.0699999 -1.022 -0.43900001 22
2.642 -0.884 -0.59899998 19
2.7149999 -0.91100001 -0.56999999 16
2.799 -0.94199997 -0.54000002 15
2.878 -0.97299999 -0.50700003 15
2.9649999 -1.006 -0.47400001 16
3.0669999 -1.046 -0.44 22
2.635 -0.903 -0.59899998 17
2.7119999 -0.93199998 -0.57099998 14
2.7980001 -0.96399999 -0.542 14
2.882 -0.99699998 -0.50999999 16
2.9679999 -1.03 -0.47600001 17
3.063 -1.068 -0.44100001 23
2.641 -0.926 -0.60299999 20
2.711 -0.95300001 -0.57200003 17
2.7939999 -0.98500001 -0.542 15
2.8759999 -1.017 -0.50999999 17
2.9619999 -1.052 -0.477 17
3.069 -1.094 -0.44299999 21
2.6329999 -0.94400001 -0.60299999 18
2.7179999 -0.977 -0.57599998 15
2.793 -1.006 -0.54400003 15
2.8729999 -1.038 -0.51200002 17
2.9679999 -1.076 -0.479 21
3.063 -1.1160001 -0.44400001 21
2.6359999 -0.96499997 -0.60500002 23
2.714 -0.99599999 -0.57700002 16
2.799 -1.03 -0.54699999 16
2.8710001 -1.0599999 -0.51300001 17
2.964 -1.098 -0.48100001 18
3.0610001 -1.138 -0.44600001 20
2.6300001 -0.98299998 -0.60600001 20
2.7119999 -1.016 -0.579 17
2.793 -1.049 -0.54799998 15
2.8699999 -1.081 -0.51499999 15
2.9660001 -1.1210001 -0.48300001 17
3.063 -1.1619999 -0.44800001 24
2.6259999 -1.002 -0.60799998 20
2.7060001 -1.034 -0.579 17
2.789 -1.069 -0.55000001 17
2.8659999 -1.101 -0.51599997 19
2.9630001 -1.142 -0.48500001 17
3.0580001 -1.182 -0.449 23
2.6229999 -1.021 -0.60900003 19
2.7079999 -1.0549999 -0.58200002 16
2.7839999 -1.087 -0.551 15
2.8670001 -1.122 -0.51899999 24
2.9590001 -1.1619999 -0.486 17
3.0550001 -1.204 -0.45100001 21
2.6240001 -1.041 -0.61199999 21
2.701 -1.073 -0.583 16
2.7869999 -1.109 -0.55400002 14
2.862 -1.141 -0.51999998 22
2.9619999 -1.1849999 -0.48899999 16
3.0550001 -1.226 -0.454 20
0 6.1440001 0 0
0 0 0 0
0 0 0 0
0 0 0 255
2.6140001 -1.056 -0.61199999 21
2.704 -1.094 -0.58600003 17
2.7820001 -1.127 -0.55500001 16
2.8570001 -1.16 -0.52200001 17
2.9560001 -1.2029999 -0.49000001 16
3.053 -1.247 -0.456 21
2.615 -1.075 -0.61500001 18
2.701 -1.112 -0.588 16
2.776 -1.1440001 -0.55699998 16
2.858 -1.1799999 -0.52499998 16
2.95 -1.221 -0.49200001 18
3.0480001 -1.266 -0.45699999 20
2.612 -1.0930001 -0.61699998 17
2.698 -1.13 -0.58999997 17
2.776 -1.164 -0.55900002 17
2.8510001 -1.197 -0.52600002 18
2.951 -1.242 -0.495 19
3.0439999 -1.285 -0.45899999 23
2.6099999 -1.11 -0.61900002 18
2.694 -1.147 -0.59200001 18
2.7690001 -1.1799999 -0.56099999 19
2.848 -1.215 -0.528 16
2.9489999 -1.261 -0.49700001 18
3.0369999 -1.302 -0.461 24
2.609 -1.128 -0.62199998 21
2.6860001 -1.161 -0.59399998 17
2.7650001 -1.197 -0.56300002 21
2.8429999 -1.232 -0.52999997 16
2.9419999 -1.278 -0.49900001 20
3.04 -1.323 -0.46399999 20
2.6059999 -1.1440001 -0.62400001 18
2.6849999 -1.179 -0.59600002 16
2.766 -1.215 -0.56599998 16
2.8380001 -1.249 -0.53200001 16
2.938 -1.295 -0.50099999 17
3.0280001 -1.337 -0.465 21
2.596 -1.156 -0.625 21
2.678 -1.193 -0.59799999 17
2.7579999 -1.229 -0.56699997 18
2.835 -1.265 -0.53500003 16
2.928 -1.308 -0.50199997 25
3.029 -1.3559999 -0.46900001 21
2.592 -1.171 -0.62699997 20
2.671 -1.207 -0.59899998 18
2.7550001 -1.245 -0.56999999 18
2.832 -1.281 -0.537 18
2.927 -1.326 -0.505 18
3.0220001 -1.3710001 -0.47 23
2.5929999 -1.188 -0.63099998 21
2.665 -1.22 -0.60100001 15
2.75 -1.26 -0.57200003 18
2.829 -1.2970001 -0.54000002 18
2.9219999 -1.341 -0.50700003 20
3.0179999 -1.387 -0.47299999 22
2.5840001 -1.199 -0.63200003 22
2.6630001 -1.2359999 -0.60399997 17
2.743 -1.273 -0.574 18
2.8180001 -1.308 -0.54100001 17
2.918 -1.355 -0.50999999 17
3.017 -1.404 -0.47600001 20
2.5810001 -1.2130001 -0.63499999 22
2.665 -1.252 -0.60799998 17
2.7409999 -1.288 -0.57700002 19
2.819 -1.325 -0.54400003 18
2.9189999 -1.372 -0.514 16
3.013 -1.418 -0.479 20
2.576 -1.226 -0.63700002 23
2.654 -1.262 -0.60900003 17
2.737 -1.301 -0.57999998 16
2.816 -1.3380001 -0.54699999 17
2.9119999 -1.385 -0.51599997 16
3.006 -1.4299999 -0.48100001 20
2.5699999 -1.237 -0.639 22
2.652 -1.275 -0.61199999 16
2.7349999 -1.314 -0.58200002 16
2.8080001 -1.349 -0.54900002 17
2.905 -1.396 -0.51800001 18
3.007 -1.446 -0.48500001 20
2.5680001 -1.25 -0.64200002 22
2.6489999 -1.2869999 -0.61400002 16
2.7290001 -1.325 -0.58499998 16
2.8 -1.359 -0.551 17
2.8970001 -1.406 -0.51999998 18
2.993 -1.454 -0.486 19
2.5639999 -1.261 -0.64399999 20
2.641 -1.2970001 -0.616 16
2.721 -1.334 -0.58700001 19
2.7950001 -1.37 -0.55299997 17
2.898 -1.42 -0.52399999 17
2.99 -1.466 -0.48899999 20
2.5610001 -1.271 -0.64700001 15
2.6389999 -1.308 -0.61900002 16
2.717 -1.345 -0.58899999 16
2.796 -1.383 -0.55699998 16
2.8959999 -1.432 -0.52700001 17
2.9849999 -1.476 -0.49200001 20
0 6.1440001 0 0
0 0 0 0
0 0 0 0
0 0 0 255
2.5510001 -1.278 -0.648 19
2.6340001 -1.317 -0.62199998 16
2.714 -1.355 -0.59200001 16
2.786 -1.39 -0.55900002 18
2.8900001 -1.441 -0.52899998 18
2.98 -1.4859999 -0.49399999 19
2.5480001 -1.288 -0.65100002 21
2.6270001 -1.325 -0.62300003 16
2.7060001 -1.363 -0.59399998 16
2.7850001 -1.401 -0.56199998 16
2.8740001 -1.4450001 -0.52999997 19
2.971 -1.493 -0.49700001 19
2.543 -1.296 -0.653 18
2.6210001 -1.332 -0.62599999 15
2.698 -1.369 -0.59500003 16
2.7750001 -1.406 -0.56300002 17
2.8729999 -1.454 -0.53299999 17
2.9690001 -1.502 -0.5 21
2.5369999 -1.303 -0.65499997 19
2.612 -1.3380001 -0.62699997 17
2.6930001 -1.376 -0.59799999 18
2.7709999 -1.413 -0.56599998 17
2.865 -1.46 -0.53500003 17
2.9619999 -1.508 -0.50199997 20
2.533 -1.3099999 -0.65799999 20
2.6140001 -1.348 -0.63099998 17
2.6949999 -1.386 -0.602 17
2.767 -1.42 -0.56900001 17
2.8629999 -1.4680001 -0.53799999 19
2.9579999 -1.515 -0.505 21
2.529 -1.316 -0.66000003 19
2.6040001 -1.351 -0.63200003 17
2.684 -1.388 -0.60299999 18
2.7639999 -1.427 -0.57200003 16
2.859 -1.474 -0.54100001 17
2.951 -1.5190001 -0.50700003 20
2.52 -1.319 -0.66100001 20
2.6070001 -1.36 -0.63599998 16
2.6800001 -1.3940001 -0.60500002 17
2.7520001 -1.428 -0.57200003 16
2.8499999 -1.476 -0.542 19
2.9430001 -1.522 -0.509 24
2.5190001 -1.325 -0.66399997 21
2.595 -1.36 -0.63599998 16
2.675 -1.398 -0.60699999 17
2.7539999 -1.4349999 -0.57599998 17
2.8469999 -1.4809999 -0.54500002 19
2.9400001 -1.527 -0.51200002 20
2.5190001 -1.331 -0.66799998 21
2.5899999 -1.364 -0.63800001 16
2.6700001 -1.401 -0.61000001 17
2.747 -1.438 -0.57800001 19
2.839 -1.482 -0.54699999 18
2.9349999 -1.53 -0.514 21
2.5109999 -1.332 -0.66900003 16
2.589 -1.368 -0.64099997 16
2.664 -1.403 -0.611 16
2.7409999 -1.439 -0.57999998 18
2.8340001 -1.484 -0.54900002 16
2.925 -1.529 -0.51599997 21
2.5079999 -1.335 -0.671 17
2.582 -1.369 -0.64300001 18
2.6619999 -1.406 -0.61400002 16
2.74 -1.442 -0.58200002 17
2.832 -1.487 -0.55199999 16
2.925 -1.5319999 -0.51899999 20
2.5050001 -1.337 -0.67299998 17
2.5840001 -1.373 -0.64600003 17
2.6570001 -1.406 -0.616 18
2.73 -1.4400001 -0.583 17
2.823 -1.485 -0.55299997 16
2.9189999 -1.531 -0.51999998 19
2.5020001 -1.3380001 -0.67500001 19
2.575 -1.3710001 -0.64700001 16
2.6530001 -1.406 -0.61699998 19
2.7309999 -1.442 -0.58600003 17
2.822 -1.4859999 -0.55500001 16
2.9130001 -1.53 -0.52200001 20
2.494 -1.337 -0.676 19
2.5699999 -1.37 -0.648 17
2.645 -1.404 -0.61799997 19
2.721 -1.439 -0.58700001 17
2.812 -1.482 -0.55599999 16
2.9070001 -1.527 -0.52399999 20
2.4909999 -1.336 -0.67699999 19
2.5680001 -1.37 -0.64999998 17
2.641 -1.403 -0.62 19
2.72 -1.439 -0.58899999 17
2.8080001 -1.48 -0.55800003 16
2.9000001 -1.523 -0.52499998 20
2.484 -1.3329999 -0.67799997 19
2.563 -1.368 -0.65100002 17
2.635 -1.399 -0.62099999 20
2.7119999 -1.434 -0.58999997 17
2.802 -1.475 -0.55900002 17
2.9000001 -1.522 -0.52700001 21
0 6.1440001 0 0
0 0 0 0
0 0 0 0
0 0 0 255
2.4779999 -1.329 -0.67799997 18
2.5599999 -1.3660001 -0.653 17
2.6359999 -1.399 -0.62300003 19
2.7130001 -1.433 -0.59200001 16
2.802 -1.474 -0.56099999 18
2.892 -1.516 -0.528 23
2.473 -1.326 -0.67900002 18
2.553 -1.36 -0.653 17
2.635 -1.397 -0.625 18
2.7049999 -1.427 -0.59299999 17
2.7969999 -1.469 -0.56300002 19
2.891 -1.512 -0.52999997 23
2.471 -1.323 -0.68099999 18
2.5550001 -1.359 -0.65600002 16
2.632 -1.392 -0.62699997 17
2.7079999 -1.425 -0.59500003 19
2.7939999 -1.464 -0.56400001 19
2.8859999 -1.506 -0.53100002 22
2.474 -1.322 -0.68300003 18
2.55 -1.353 -0.65600002 15
2.6270001 -1.386 -0.62699997 17
2.7 -1.4170001 -0.59500003 16
2.789 -1.457 -0.56400001 17
2.8829999 -1.5 -0.53200001 24
2.473 -1.317 -0.68400002 18
2.549 -1.349 -0.65700001 15
2.6270001 -1.382 -0.62900001 18
2.701 -1.413 -0.597 17
2.7839999 -1.449 -0.565 17
2.878 -1.4910001 -0.53299999 22
2.457 -1.304 -0.68199998 20
2.5409999 -1.34 -0.65600002 17
2.619 -1.372 -0.62800002 17
2.6960001 -1.405 -0.597 17
2.783 -1.442 -0.56599998 18
2.8670001 -1.479 -0.53200001 20
2.4590001 -1.3 -0.68300003 15
2.5450001 -1.336 -0.65899998 16
2.6210001 -1.367 -0.63 16
2.694 -1.397 -0.59799999 16
2.783 -1.4349999 -0.56699997 16
2.8759999 -1.476 -0.53500003 20
2.461 -1.295 -0.685 15
2.5409999 -1.3279999 -0.65899998 16
2.6170001 -1.359 -0.63 17
2.6960001 -1.391 -0.59899998 17
2.7739999 -1.423 -0.56699997 17
2.8729999 -1.467 -0.53600001 22
2.46 -1.288 -0.685 18
2.5369999 -1.319 -0.65899998 16
2.6140001 -1.349 -0.63 17
2.6930001 -1.381 -0.59899998 18
2.7750001 -1.415 -0.56800002 18
2.869 -1.455 -0.53600001 19
2.4579999 -1.28 -0.685 19
2.5369999 -1.311 -0.65899998 16
2.6140001 -1.341 -0.63099998 18
2.6949999 -1.374 -0.60100001 17
2.7739999 -1.406 -0.56800002 18
