# .PCD v0.7 - Point Cloud Data file format
VERSION 0.7
FIELDS x y z intensity
SIZE 4 4 4 4
TYPE F F F F
COUNT 1 1 1 1
WIDTH 1766
HEIGHT 1
VIEWPOINT 0 0 0 1 0 0 0
POINTS 1766
DATA ascii
6.5149999 1.27 0.93699998 18
6.9699998 1.367 1.114 17
7.5279999 1.4859999 1.325 15
8.2030001 1.631 1.5779999 14
8.9379997 1.79 1.867 12
6.1139998 1.234 0.78299999 18
6.5240002 1.324 0.93900001 18
6.9679999 1.4220001 1.115 16
7.533 1.5470001 1.3279999 15
8.2130003 1.698 1.5829999 13
8.9390001 1.8609999 1.8710001 11
6.1100001 1.2819999 0.78399998 18
6.5289998 1.377 0.94199997 17
6.974 1.479 1.118 16
7.5380001 1.608 1.331 15
8.2150002 1.7640001 1.586 13
8.9429998 1.933 1.875 11
6.1220002 1.3329999 0.787 18
6.52 1.427 0.94199997 16
6.9759998 1.535 1.1210001 16
7.5419998 1.669 1.335 15
8.2250004 1.831 1.591 13
8.9490004 2.006 1.8789999 11
6.1209998 1.381 0.78799999 19
6.5209999 1.479 0.94400001 17
6.9819999 1.591 1.124 17
7.5510001 1.7309999 1.339 16
8.2270002 1.897 1.595 14
8.9689999 2.0810001 1.888 12
6.1290002 1.431 0.79100001 19
6.5289998 1.531 0.94700003 18
6.9889998 1.647 1.127 17
7.5599999 1.791 1.3430001 16
8.2449999 1.965 1.601 14
8.9589996 2.1489999 1.8890001 13
6.1259999 1.478 0.79299998 19
6.5339999 1.5829999 0.95099998 18
6.993 1.7029999 1.131 17
7.5609999 1.851 1.347 17
8.2530003 2.0320001 1.607 13
8.9709997 2.223 1.896 12
6.1240001 1.525 0.79500002 19
6.5359998 1.635 0.95300001 17
7.0029998 1.76 1.135 17
7.5739999 1.914 1.352 16
8.2620001 2.099 1.612 14
8.9879999 2.2969999 1.904 12
6.1339998 1.575 0.79799998 19
6.539 1.686 0.95599997 17
7.0139999 1.817 1.14 17
7.5929999 1.976 1.359 15
8.2740002 2.1659999 1.619 14
9.0150003 2.3729999 1.915 12
6.1430001 1.624 0.80199999 19
6.5440001 1.737 0.95999998 16
7.0229998 1.873 1.145 16
7.5939999 2.0350001 1.363 16
8.2740002 2.2290001 1.623 13
9.0360003 2.448 1.925 12
6.1420002 1.67 0.80400002 19
6.553 1.789 0.96399999 16
7.039 1.9299999 1.151 16
7.618 2.099 1.3710001 15
8.3000002 2.299 1.633 14
9.0539999 2.5220001 1.934 12
6.152 1.72 0.80800003 18
6.566 1.842 0.96899998 18
7.0489998 1.9859999 1.156 15
7.6259999 2.1589999 1.377 15
8.309 2.365 1.64 14
9.1129999 2.6070001 1.9529999 16
6.158 1.767 0.81199998 19
6.5689998 1.892 0.97299999 16
7.0640001 2.043 1.163 16
7.645 2.221 1.385 15
8.3269997 2.4319999 1.649 13
9.1289997 2.6800001 1.962 28
6.1620002 1.814 0.81599998 18
6.586 1.9450001 0.97899997 17
7.0830002 2.1010001 1.17 14
7.6669998 2.2850001 1.3940001 14
8.3500004 2.5009999 1.659 13
9.1110001 2.744 1.965 36
0 6.1440001 0 0
0 0 0 0
0 0 0 0
0 0 0 255
6.1659999 1.8609999 0.81999999 17
6.599 1.998 0.98500001 17
7.1009998 2.158 1.177 15
7.6799998 2.345 1.402 13
8.3699999 2.5680001 1.669 13
9.0889997 2.8039999 1.9680001 30
6.1890001 1.9119999 0.82700002 17
6.605 2.0480001 0.99000001 16
7.1199999 2.2160001 1.1849999 16
7.6919999 2.404 1.409 13
8.4049997 2.6400001 1.682 13
9.1300001 2.8829999 1.983 17
6.2030001 1.961 0.83200002 16
6.618 2.099 0.99699998 17
7.1339998 2.2709999 1.193 15
7.7069998 2.464 1.418 13
8.4329996 2.7090001 1.694 13
9.257 2.99 2.0190001 16
6.2030001 2.0050001 0.83700001 15
6.638 2.1530001 1.005 16
7.152 2.3269999 1.201 15
7.7259998 2.5250001 1.428 13
8.46 2.7780001 1.707 13
9.3059998 3.072 2.0369999 26
6.2280002 2.056 0.84399998 16
6.6550002 2.204 1.012 16
7.177 2.385 1.211 15
7.763 2.5910001 1.441 13
8.5229998 2.858 1.727 16
9.2969999 3.1340001 2.0439999 33
6.2329998 2.0999999 0.84899998 15
6.677 2.257 1.02 16
7.198 2.4419999 1.22 12
7.7870002 2.652 1.452 13
8.5579996 2.9289999 1.742 29
9.2819996 3.1930001 2.049 30
6.25 2.148 0.85699999 15
6.691 2.306 1.028 16
7.2249999 2.5 1.2309999 13
7.8150001 2.7149999 1.464 13
8.5559998 2.9860001 1.749 40
9.3240004 3.27 2.0680001 16
6.2649999 2.194 0.86400002 15
6.71 2.358 1.036 16
7.2459998 2.5550001 1.2410001 13
7.8330002 2.773 1.475 13
8.5369997 3.036 1.753 34
9.4280005 3.3699999 2.0999999 12
6.276 2.2390001 0.87099999 16
6.7319999 2.4089999 1.046 16
7.2659998 2.6099999 1.251 14
7.8629999 2.835 1.488 14
8.5699997 3.1040001 1.7690001 22
9.493 3.4560001 2.125 13
6.3070002 2.29 0.88 16
6.7610002 2.4630001 1.057 16
7.289 2.664 1.262 14
7.888 2.895 1.5 14
8.6499996 3.1889999 1.795 16
9.5319996 3.5320001 2.1440001 12
6.3299999 2.3380001 0.889 15
6.79 2.516 1.068 16
7.3179998 2.721 1.274 13
7.9260001 2.9590001 1.516 14
8.7510004 3.2809999 1.825 25
9.6219997 3.6259999 2.175 12
6.3449998 2.382 0.898 16
6.8179998 2.5680001 1.079 16
7.3400002 2.7739999 1.286 13
7.9780002 3.027 1.535 15
8.7749996 3.3440001 1.84 35
9.6759996 3.7060001 2.1989999 12
6.369 2.4289999 0.90700001 16
6.8439999 2.618 1.09 16
7.3720002 2.8299999 1.299 14
8.0310001 3.095 1.554 22
0 0 0 0
9.7309999 3.786 2.223 12
6.401 2.4790001 0.91799998 16
6.8829999 2.674 1.104 15
7.3990002 2.8829999 1.312 14
8.0570002 3.152 1.568 38
8.7819996 3.451 1.862 24
9.8079996 3.8740001 2.253 13
6.4229999 2.523 0.92799997 16
6.9060001 2.721 1.115 14
7.4369998 2.9400001 1.327 14
8.0600004 3.1989999 1.5779999 44
8.8710003 3.536 1.891 16
9.8769999 3.9579999 2.2809999 12
6.4429998 2.566 0.93800002 16
6.9289999 2.7679999 1.126 13
7.4710002 2.9949999 1.342 13
8.0620003 3.244 1.5880001 32
8.9540005 3.619 1.92 14
9.9589996 4.0450001 2.313 12
0 6.1440001 0 0
0 0 0 0
0 0 0 0
0 0 0 255
6.4660001 2.609 0.94800001 15
6.9580002 2.816 1.1390001 13
7.5009999 3.046 1.3559999 13
8.1210003 3.3110001 1.609 19
9.0059996 3.688 1.943 14
10.024 4.125 2.3410001 12
6.4949999 2.654 0.95999998 15
6.9889998 2.8640001 1.152 13
7.539 3.0999999 1.372 13
8.2329998 3.3989999 1.642 16
9.073 3.7620001 1.969 14
10.107 4.2119999 2.3740001 11
6.5349998 2.7019999 0.97299999 15
7.0159998 2.9100001 1.165 13
7.5799999 3.154 1.3890001 13
8.29 3.4630001 1.663 26
9.1370001 3.835 1.995 13
10.168 4.2880001 2.402 10
6.553 2.74 0.98400003 15
7.0489998 2.9560001 1.179 13
7.6370001 3.214 1.409 16
8.3109999 3.5109999 1.678 35
9.1999998 3.904 2.0209999 14
10.261 4.3769999 2.438 11
6.5879998 2.7839999 0.99699998 15
7.0910001 3.0050001 1.194 14
7.6919999 3.2720001 1.428 30
8.3380003 3.5599999 1.694 43
9.2749996 3.9779999 2.05 14
10.363 4.4679999 2.477 11
6.618 2.825 1.0089999 14
7.1199999 3.0480001 1.2079999 14
7.7119999 3.313 1.442 43
8.3369999 3.596 1.705 33
9.3540001 4.053 2.0799999 14
10.442 4.5479999 2.51 11
6.652 2.8670001 1.023 15
7.1539998 3.092 1.223 14
7.717 3.3469999 1.4529999 46
8.408 3.661 1.7309999 19
9.4239998 4.1230001 2.108 14
10.523 4.6269999 2.5439999 11
6.6789999 2.904 1.035 13
7.1890001 3.1340001 1.237 14
7.7399998 3.3870001 1.467 39
8.5129995 3.74 1.7640001 14
9.493 4.1900001 2.1359999 14
10.617 4.71 2.582 10
6.7080002 2.9400001 1.0470001 14
7.2210002 3.175 1.252 14
7.7950001 3.4389999 1.488 21
8.5640001 3.7939999 1.786 14
9.5629997 4.2550001 2.165 14
10.73 4.8000002 2.625 10
6.7389998 2.9760001 1.061 14
7.2620001 3.217 1.268 14
7.8759999 3.5009999 1.513 15
8.6569996 3.8640001 1.816 13
9.6429996 4.3239999 2.197 12
10.816 4.8759999 2.661 10
6.7729998 3.0120001 1.074 13
7.3010001 3.256 1.284 15
7.948 3.5580001 1.5369999 20
8.7119999 3.9159999 1.84 15
9.7379999 4.3969998 2.2309999 13
10.92 4.9569998 2.7019999 11
6.809 3.0469999 1.0880001 14
7.355 3.3010001 1.303 16
7.9980001 3.6029999 1.557 30
8.776 3.97 1.865 15
9.8009996 4.454 2.2590001 12
11.008 5.0300002 2.7390001 11
6.8449998 3.0799999 1.102 13
7.4089999 3.3440001 1.322 22
8.0369997 3.641 1.575 37
8.8380003 4.0209999 1.8890001 15
9.8780003 4.5149999 2.29 12
11.123 5.112 2.7820001 11
6.8759999 3.1099999 1.1160001 13
7.46 3.3840001 1.34 31
8.0410004 3.661 1.586 47
8.8970003 4.0679998 1.913 15
9.9530001 4.573 2.3199999 12
11.23 5.1880002 2.825 12
6.9070001 3.138 1.1289999 13
7.4809999 3.4089999 1.353 43
8.0600004 3.687 1.599 42
8.9589996 4.1149998 1.938 15
10.032 4.631 2.352 12
11.334 5.2600002 2.8659999 12
6.9429998 3.1659999 1.143 13
7.5019999 3.4319999 1.365 45
8.1059999 3.7219999 1.618 32
9.026 4.1620002 1.9630001 15
10.112 4.6849999 2.3829999 12
11.426 5.3239999 2.9030001 12
0 6.1440001 0 0
0 0 0 0
0 0 0 0
0 0 0 255
6.9780002 3.1919999 1.156 14
7.52 3.451 1.377 45
8.1739998 3.7650001 1.641 20
9.0780001 4.1999998 1.9859999 15
10.193 4.7389998 2.415 13
11.54 5.395 2.947 12
7.0079999 3.214 1.169 13
7.539 3.4690001 1.3890001 39
8.2390003 3.8050001 1.664 16
9.1479998 4.243 2.0120001 15
10.278 4.7909999 2.447 12
11.624 5.448 2.983 13
7.0339999 3.2320001 1.181 13
7.5749998 3.4920001 1.404 30
8.3009996 3.8410001 1.686 15
9.1920004 4.2719998 2.0320001 15
10.363 4.8400002 2.4790001 11
11.729 5.5089998 3.023 13
7.066 3.2509999 1.194 13
7.6129999 3.5139999 1.419 22
8.3430004 3.8659999 1.7029999 15
9.2589998 4.309 2.056 15
10.414 4.8709998 2.503 11
11.833 5.566 3.0639999 13
7.0999999 3.2690001 1.207 13
7.6729999 3.5439999 1.438 17
8.3929996 3.892 1.722 15
9.3219995 4.3410001 2.0799999 15
10.486 4.9089999 2.5320001 11
11.935 5.618 3.102 13
7.132 3.2839999 1.219 13
7.724 3.5680001 1.455 16
8.4309998 3.9100001 1.738 15
9.3699999 4.3649998 2.0999999 15
10.563 4.9450002 2.5610001 11
12.049 5.6729999 3.145 14
7.1589999 3.2939999 1.23 13
7.7680001 3.586 1.47 17
8.4820004 3.931 1.756 15
9.4180002 4.3839998 2.1199999 14
10.636 4.9770002 2.5880001 12
12.121 5.704 3.175 13
7.184 3.302 1.24 13
7.8109999 3.602 1.485 19
8.5240002 3.9460001 1.772 14
9.4770002 4.4070001 2.142 14
10.689 4.9959998 2.6110001 12
12.228 5.7480001 3.214 13
7.211 3.3080001 1.251 13
7.8509998 3.6140001 1.5 20
8.5620003 3.9560001 1.7869999 15
9.5299997 4.4239998 2.161 13
10.76 5.0209999 2.638 12
12.311 5.777 3.247 12
7.244 3.3150001 1.262 13
7.8800001 3.618 1.511 23
8.6099997 3.9690001 1.804 14
9.5679998 4.4299998 2.177 13
10.816 5.0339999 2.6600001 12
12.415 5.8119998 3.2839999 12
7.2740002 3.3180001 1.273 14
7.9180002 3.6240001 1.524 29
8.6499996 3.9749999 1.818 15
9.6190004 4.441 2.1960001 12
10.873 5.046 2.681 12
12.467 5.8189998 3.3069999 13
7.302 3.3180001 1.2819999 15
7.9439998 3.6229999 1.534 29
8.677 3.973 1.829 15
9.6549997 4.441 2.21 13
10.926 5.052 2.701 12
12.55 5.836 3.3369999 15
7.3239999 3.3139999 1.29 15
7.967 3.618 1.543 30
8.7080002 3.97 1.841 14
9.6809998 4.434 2.221 12
10.969 5.0500002 2.7179999 11
12.609 5.8379998 3.359 14
7.349 3.309 1.298 15
7.9910002 3.6110001 1.552 29
8.7309999 3.961 1.85 14
9.6999998 4.421 2.2309999 11
11 5.04 2.7309999 11
12.669 5.8379998 3.381 13
7.3649998 3.2980001 1.3049999 15
8.0120001 3.5999999 1.559 28
8.7629995 3.954 1.8609999 14
9.7469997 4.4180002 2.2449999 12
11.045 5.0320001 2.747 12
12.713 5.8260002 3.398 14
7.375 3.2820001 1.309 14
8.026 3.5840001 1.5650001 27
8.7720003 3.9330001 1.8660001 14
9.7670002 4.4000001 2.2539999 13
11.076 5.0149999 2.7590001 12
12.75 5.8070002 3.4119999 14
0 6.1440001 0 0
0 0 0 0
0 0 0 0
0 0 0 255
7.3769999 3.2609999 1.312 14
8.0459995 3.569 1.571 25
8.7989998 3.9189999 1.874 14
9.7989998 4.3839998 2.2639999 13
11.11 4.9970002 2.77 12
12.783 5.783 3.425 14
7.388 3.2420001 1.316 13
8.0600004 3.549 1.576 24
8.8140001 3.8970001 1.88 15
9.8000002 4.3530002 2.266 12
11.133 4.9710002 2.7780001 12
12.784 5.7410002 3.427 14
7.401 3.2219999 1.3200001 14
8.066 3.5239999 1.579 19
8.8219995 3.869 1.883 15
9.8240004 4.329 2.273 12
11.132 4.9299998 2.779 12
12.811 5.7069998 3.4349999 14
7.4050002 3.1960001 1.322 14
8.0679998 3.494 1.58 18
8.8290005 3.839 1.885 14
9.835 4.296 2.276 13
11.143 4.8930001 2.7820001 12
12.809 5.658 3.4349999 14
7.402 3.1659999 1.321 14
8.059 3.4590001 1.579 17
8.8409996 3.8099999 1.888 15
9.8360004 4.2579999 2.277 12
11.146 4.8499999 2.783 12
12.8 5.6009998 3.4319999 14
7.4169998 3.142 1.324 14
8.0419998 3.418 1.576 17
8.835 3.77 1.887 16
9.8450003 4.2199998 2.2780001 12
11.15 4.8039999 2.783 12
12.803 5.5479999 3.4319999 14
7.4239998 3.112 1.325 14
8.0249996 3.375 1.572 19
8.8210001 3.7249999 1.882 15
9.8520002 4.1799998 2.279 14
11.153 4.7550001 2.7809999 12
12.799 5.4879999 3.428 14
7.4219999 3.0769999 1.324 15
8.0030003 3.329 1.566 29
8.8219995 3.684 1.881 16
9.8310003 4.1240001 2.2720001 15
11.146 4.6999998 2.7780001 12
12.747 5.4050002 3.411 14
7.4159999 3.039 1.321 14
8.0010004 3.29 1.564 35
8.8149996 3.6389999 1.878 16
9.8219995 4.072 2.267 14
11.125 4.6360002 2.7690001 11
12.733 5.336 3.4030001 14
7.414 3.0009999 1.319 15
8.0120001 3.2539999 1.564 43
8.7840004 3.582 1.869 17
9.8129997 4.0190001 2.2609999 15
11.112 4.5739999 2.7620001 9
12.696 5.256 3.388 14
7.4089999 2.9619999 1.317 14
8.0240002 3.2179999 1.564 44
8.7379999 3.5179999 1.8559999 22
9.7840004 3.957 2.2509999 16
11.076 4.5009999 2.7479999 11
12.647 5.1690001 3.369 14
7.4039998 2.9200001 1.313 14
8.0380001 3.181 1.564 45
8.7110004 3.46 1.847 32
9.7600002 3.8940001 2.2409999 15
11.053 4.4320002 2.737 12
12.591 5.0770001 3.3469999 13
7.3909998 2.875 1.308 14
8.0500002 3.142 1.563 33
8.6999998 3.4089999 1.84 40
9.7290001 3.8280001 2.2290001 16
10.997 4.349 2.717 13
12.553 4.9899998 3.3299999 13
7.3889999 2.8329999 1.304 14
8.0389996 3.092 1.556 23
8.7229996 3.368 1.841 46
9.7080002 3.763 2.2190001 16
10.984 4.2789998 2.707 12
12.5 4.8959999 3.3069999 13
7.3730001 2.7839999 1.298 14
7.9980001 3.03 1.545 17
8.7390003 3.322 1.839 37
9.6700001 3.6919999 2.204 15
10.945 4.1989999 2.6900001 10
12.437 4.7969999 3.2820001 13
7.3610001 2.7349999 1.2920001 12
7.9629998 2.9679999 1.533 14
8.7360001 3.2679999 1.832 22
9.6379995 3.6210001 2.191 15
10.888 4.1100001 2.668 10
12.369 4.6929998 3.2539999 12
0 6.1440001 0 0
0 0 0 0
0 0 0 0
0 0 0 255
7.342 2.684 1.284 14
7.9510002 2.915 1.526 14
8.6920004 3.198 1.817 17
9.5959997 3.546 2.174 15
10.842 4.0250001 2.648 10
12.32 4.5970001 3.2320001 12
7.3319998 2.635 1.278 14
7.9289999 2.858 1.516 14
8.5959997 3.109 1.791 20
9.5539999 3.47 2.1570001 15
10.794 3.938 2.628 12
12.236 4.4879999 3.1989999 12
7.3179998 2.5840001 1.27 12
7.9029999 2.799 1.506 13
8.5550003 3.04 1.776 35
9.5159998 3.395 2.141 16
10.749 3.852 2.608 14
12.166 4.382 3.1700001 12
7.3099999 2.5339999 1.2640001 15
7.8759999 2.7379999 1.494 14
8.5690002 2.9890001 1.772 47
9.4440002 3.3069999 2.1170001 18
10.687 3.7590001 2.5829999 13
12.092 4.2740002 3.138 12
7.2849998 2.4779999 1.2539999 14
7.8610001 2.681 1.485 15
8.5690002 2.9319999 1.765 40
9.3529997 3.2119999 2.0880001 29
10.628 3.6659999 2.559 14
12.016 4.165 3.1070001 11
7.2579999 2.4200001 1.244 14
7.8390002 2.6210001 1.475 15
8.5629997 2.8729999 1.756 24
9.3369999 3.1440001 2.076 40
10.576 3.576 2.536 15
11.938 4.0560002 3.075 11
7.237 2.3640001 1.234 14
7.8099999 2.5580001 1.4630001 14
8.507 2.7950001 1.737 16
9.3529997 3.085 2.0710001 39
10.49 3.474 2.5050001 15
11.87 3.9489999 3.0439999 11
7.2140002 2.3080001 1.224 15
7.7800002 2.4949999 1.45 14
8.4569998 2.721 1.72 14
9.3400002 3.0150001 2.059 29
10.443 3.385 2.484 15
11.779 3.835 3.0090001 11
7.1859999 2.2479999 1.2130001 15
7.7579999 2.4330001 1.439 14
8.4169998 2.648 1.7029999 15
9.2440004 2.918 2.029 21
10.359 3.283 2.4530001 16
11.694 3.723 2.974 10
7.1659999 2.1919999 1.204 15
7.7389998 2.3729999 1.429 14
8.3889999 2.5799999 1.689 15
9.1169996 2.813 1.9910001 33
10.295 3.1889999 2.4260001 16
11.617 3.615 2.941 10
7.1409998 2.1340001 1.193 15
7.7059999 2.3080001 1.415 14
8.3430004 2.506 1.6720001 15
9.125 2.75 1.983 44
10.225 3.0929999 2.3989999 17
11.541 3.506 2.9089999 10
7.1090002 2.0739999 1.182 15
7.6799998 2.2449999 1.403 17
8.309 2.4360001 1.6569999 15
9.118 2.681 1.972 35
10.075 2.974 2.3529999 23
11.477 3.401 2.8789999 11
7.0809999 2.0150001 1.17 16
7.6490002 2.181 1.39 17
8.276 2.3659999 1.642 15
9.0790005 2.6029999 1.954 20
10.027 2.885 2.3299999 38
11.401 3.2939999 2.8469999 12
7.0570002 1.957 1.16 16
7.6129999 2.115 1.376 16
8.243 2.296 1.627 15
9.007 2.516 1.929 16
10.037 2.813 2.3210001 43
11.304 3.1800001 2.809 14
7.02 1.895 1.147 16
7.5879998 2.053 1.364 16
8.2139997 2.227 1.613 15
8.9619999 2.437 1.91 16
10.02 2.733 2.306 29
11.208 3.069 2.7720001 14
6.994 1.837 1.136 16
7.5549998 1.988 1.351 17
8.1780005 2.1570001 1.597 16
8.9209995 2.359 1.891 18
9.8769999 2.6199999 2.2620001 22
11.126 2.961 2.7390001 15
0 6.1440001 0 0
0 0 0 0
0 0 0 0
0 0 0 255
6.9720001 1.78 1.126 16
7.52 1.923 1.337 17
8.1529999 2.089 1.584 15
8.8669996 2.277 1.8710001 16
9.7819996 2.5190001 2.2290001 32
11.044 2.8540001 2.7049999 13
6.9369998 1.719 1.114 14
7.494 1.86 1.325 15
8.1120005 2.016 1.567 14
8.8269997 2.1989999 1.852 15
9.783 2.444 2.2179999 35
10.919 2.737 2.6619999 15
6.9130001 1.66 1.103 14
7.4619999 1.795 1.312 16
8.0760002 1.946 1.552 14
8.7889996 2.1229999 1.835 15
9.7749996 2.3670001 2.2049999 24
10.763 2.6140001 2.6110001 25
6.888 1.603 1.0930001 15
7.4349999 1.732 1.299 16
8.0439997 1.877 1.538 16
8.7480001 2.0450001 1.817 14
9.6700001 2.266 2.1700001 16
10.754 2.527 2.596 39
6.8740001 1.5470001 1.084 14
7.4000001 1.6670001 1.286 16
8.0089998 1.806 1.523 15
8.7040005 1.967 1.799 15
9.6300001 2.181 2.1500001 16
10.796 2.451 2.5940001 31
6.8509998 1.489 1.074 16
7.3660002 1.602 1.273 16
7.9689999 1.7359999 1.507 15
8.6730003 1.892 1.783 15
9.5670004 2.092 2.1259999 15
10.62 2.3280001 2.539 21
6.8340001 1.433 1.0650001 16
7.3410001 1.54 1.261 16
7.9429998 1.668 1.494 16
8.6260004 1.814 1.7640001 16
9.5240002 2.007 2.1059999 16
10.495 2.2160001 2.497 35
6.8039999 1.375 1.054 15
7.309 1.477 1.249 16
7.9039998 1.599 1.479 16
8.5880003 1.739 1.747 16
9.4729996 1.921 2.0840001 16
10.523 2.138 2.4920001 37
6.7870002 1.318 1.045 16
7.2870002 1.415 1.238 15
7.8660002 1.529 1.464 16
8.5550003 1.664 1.732 15
9.4250002 1.836 2.0639999 16
10.537 2.056 2.483 26
6.7750001 1.2640001 1.0369999 16
7.2639999 1.354 1.228 16
7.8340001 1.461 1.45 17
8.5109997 1.5880001 1.714 16
9.3769999 1.752 2.0439999 15
10.405 1.946 2.441 15
6.7329998 1.2029999 1.025 17
7.2340002 1.2920001 1.216 16
7.8060002 1.3940001 1.438 17
8.4709997 1.513 1.698 17
9.3369999 1.669 2.0250001 16
10.346 1.852 2.4159999 14
6.7179999 1.148 1.016 17
7.1960001 1.228 1.2029999 17
0 0 0 50
8.4390001 1.441 1.684 16
9.3050003 1.589 2.0090001 16
10.283 1.758 2.391 15
6.7030001 1.094 1.0089999 15
7.1820002 1.17 1.1950001 17
7.7420001 1.261 1.4119999 16
8.3959999 1.367 1.6670001 16
9.2550001 1.507 1.989 15
10.232 1.6670001 2.369 15
6.6810002 1.038 1 15
7.1550002 1.11 1.184 18
7.7119999 1.1950001 1.4 16
8.3669996 1.295 1.654 16
9.2049999 1.425 1.97 15
10.19 1.5779999 2.349 15
6.6609998 0.98299998 0.99199998 19
7.1339998 1.05 1.175 17
7.6929998 1.13 1.39 17
8.3280001 1.223 1.6390001 16
9.1630001 1.344 1.9529999 16
10.154 1.489 2.3310001 15
6.6459999 0.92699999 0.98400003 18
7.112 0.99000001 1.165 18
7.6570001 1.064 1.377 18
8.3000002 1.151 1.626 18
9.1289997 1.265 1.937 17
10.103 1.399 2.3099999 15
0 6.1440001 0 0
0 0 0 0
0 0 0 0
0 0 0 255
6.6339998 0.87300003 0.97799999 17
7.0840001 0.93000001 1.155 16
0 0 0 50
8.2670002 1.08 1.613 18
9.1090002 1.188 1.925 17
10.068 1.311 2.293 15
6.6149998 0.81800002 0.97000003 17
7.072 0.87199998 1.148 17
7.6199999 0.93599999 1.358 18
8.2519999 1.011 1.604 18
9.0719995 1.109 1.91 16
10.007 1.221 2.2709999 15
6.6090002 0.764 0.96499997 18
7.0679998 0.81400001 1.143 18
7.5949998 0.87199998 1.348 18
8.2279997 0.94199997 1.5930001 17
9.033 1.031 1.895 16
9.9589996 1.133 2.2520001 13
6.5869999 0.70999998 0.95700002 16
7.0440001 0.755 1.1339999 14
7.5760002 0.80900002 1.34 16
8.1969995 0.87199998 1.581 17
9.0080004 0.954 1.883 14
9.9219999 1.048 2.2360001 13
6.579 0.65700001 0.95200002 16
7.0250001 0.69700003 1.126 15
7.5560002 0.74599999 1.331 15
8.1709995 0.80400002 1.5700001 17
8.9779997 0.87800002 1.87 14
9.8620005 0.96100003 2.2160001 13
6.5650001 0.60299999 0.94599998 16
7.02 0.63999999 1.1210001 15
7.546 0.68400002 1.325 16
8.1499996 0.73400003 1.561 18
8.9519997 0.80199999 1.859 15
9.8479996 0.87699997 2.2060001 14
6.546 0.54900002 0.94 15
7.0149999 0.58399999 1.117 15
7.527 0.62199998 1.317 16
8.1330004 0.667 1.553 17
8.9280005 0.727 1.848 16
0 0 0 50
6.5440001 0.49599999 0.93599999 16
7.0139999 0.52700001 1.113 16
7.5240002 0.56099999 1.312 16
8.1190004 0.60100001 1.546 18
8.9160004 0.653 1.841 17
9.7930002 0.71200001 2.181 14
6.54 0.44499999 0.93199998 17
6.9970002 0.47099999 1.1059999 16
7.5040002 0.5 1.3049999 16
8.1099997 0.53399998 1.54 17
8.8830004 0.579 1.829 15
9.7589998 0.63 2.168 14
6.5310001 0.39199999 0.92799997 17
6.973 0.41299999 1.1 15
7.4970002 0.43900001 1.3 16
8.0909996 0.46799999 1.5319999 17
8.8660002 0.50599998 1.822 16
9.7259998 0.54699999 2.1559999 13
6.5370002 0.34 0.926 17
6.9710002 0.35699999 1.096 15
7.4879999 0.37799999 1.295 16
8.085 0.40200001 1.527 17
8.8660002 0.433 1.817 16
9.7200003 0.46799999 2.151 13
6.5250001 0.28799999 0.92199999 16
6.9710002 0.301 1.0930001 15
7.4790001 0.317 1.291 16
8.0769997 0.336 1.523 17
8.8470001 0.36000001 1.8099999 17
9.7049999 0.38699999 2.1429999 15
6.526 0.236 0.92000002 17
6.967 0.245 1.091 15
7.467 0.25600001 1.286 16
8.0710001 0.27000001 1.5190001 17
8.8409996 0.28799999 1.806 17
0 0 0 50
6.5289998 0.184 0.91799998 17
6.9559999 0.19 1.087 15
7.4689999 0.19599999 1.284 16
8.0749998 0.204 1.517 17
8.8269997 0.215 1.8 17
9.6920004 0.227 2.1340001 15
6.5110002 0.131 0.91399997 16
6.9549999 0.134 1.085 15
7.461 0.13600001 1.281 16
8.0699997 0.139 1.5140001 18
8.8330002 0.14300001 1.799 16
9.6870003 0.147 2.1300001 14
6.513 0.079999998 0.91299999 17
6.9260001 0.077 1.079 17
7.4499998 0.075000003 1.278 16
8.0699997 0.072999999 1.512 16
8.8330002 0.07 1.7970001 17
9.684 0.066 2.1270001 14
0 6.1440001 0 0
0 0 0 0
0 0 0 0
0 0 0 255
6.5170002 0.027000001 0.912 17
6.9580002 0.021 1.082 15
7.4569998 0.014 1.277 15
8.0530005 0.0070000002 1.508 16
8.835 -0.0020000001 1.796 17
9.6879997 -0.013 2.1270001 14
6.5089998 -0.024 0.91000003 16
6.9569998 -0.034000002 1.081 15
7.4559999 -0.045000002 1.276 16
8.066 -0.057999998 1.5089999 18
8.8450003 -0.074000001 1.7970001 15
9.6879997 -0.093000002 2.125 15
6.5289998 -0.077 0.912 17
6.96 -0.090000004 1.081 15
7.4640002 -0.105 1.277 17
8.0740004 -0.124 1.51 16
8.8540001 -0.147 1.798 14
9.6859999 -0.17299999 2.1240001 14
6.526 -0.12899999 0.912 16
6.9660001 -0.146 1.082 15
7.474 -0.16599999 1.278 17
8.0740004 -0.19 1.51 16
8.8640003 -0.22 1.8 15
9.7030001 -0.25400001 2.128 14
6.5289998 -0.182 0.912 17
6.9770002 -0.20299999 1.0829999 16
7.4809999 -0.227 1.28 17
8.0819998 -0.25600001 1.511 16
8.8660002 -0.294 1.8 16
0 0 0 50
6.5430002 -0.235 0.91399997 17
6.9809999 -0.25999999 1.084 15
7.4850001 -0.28799999 1.281 16
8.0950003 -0.324 1.5140001 17
8.8739996 -0.36700001 1.803 17
9.7519999 -0.41800001 2.1400001 14
6.5359998 -0.287 0.91299999 15
6.9850001 -0.31600001 1.085 15
7.4959998 -0.34999999 1.283 16
8.1029997 -0.38999999 1.516 17
8.8950005 -0.44100001 1.808 17
9.7709999 -0.5 2.145 14
6.5440001 -0.34 0.91500002 16
6.9959998 -0.37400001 1.0880001 15
7.52 -0.41299999 1.288 18
8.1260004 -0.458 1.522 17
8.9130001 -0.51599997 1.813 16
9.7880001 -0.583 2.151 13
6.5650001 -0.39500001 0.91900003 16
7.0089998 -0.43099999 1.091 15
7.5279999 -0.47499999 1.291 16
8.1479998 -0.52700001 1.528 16
8.941 -0.59200001 1.821 15
9.8030005 -0.66600001 2.1559999 13
6.5700002 -0.44800001 0.921 15
7.02 -0.48899999 1.094 15
7.5450001 -0.537 1.296 17
8.1630001 -0.59500003 1.5319999 16
8.9639997 -0.66799998 1.8279999 15
9.8260002 -0.74900001 2.164 14
6.5650001 -0.50099999 0.92199999 27
7.0279999 -0.54799998 1.097 15
7.552 -0.60000002 1.299 16
0 0 0 50
8.9879999 -0.745 1.835 15
9.8640003 -0.83499998 2.1760001 14
6.586 -0.55599999 0.92699999 34
7.0440001 -0.60600001 1.102 14
7.5799999 -0.66500002 1.306 16
8.2130003 -0.73400003 1.5470001 17
9.0279999 -0.82300001 1.847 15
9.9040003 -0.921 2.1889999 14
6.5960002 -0.61000001 0.93000001 33
7.0650001 -0.66500002 1.107 14
7.598 -0.72799999 1.312 16
8.2349997 -0.80400002 1.554 16
9.0500002 -0.90100002 1.855 15
9.9499998 -1.0089999 2.2030001 14
6.6300001 -0.667 0.93699998 26
7.0830002 -0.72500002 1.113 15
7.6230001 -0.79400003 1.319 15
8.2720003 -0.87699997 1.5650001 16
9.0790005 -0.98000002 1.865 15
9.9919996 -1.098 2.2179999 13
6.638 -0.72299999 0.94099998 15
7.1030002 -0.78600001 1.119 14
7.6490002 -0.86000001 1.327 15
8.2919998 -0.94800001 1.572 15
9.1199999 -1.0599999 1.878 15
10.058 -1.1900001 2.237 13
6.6620002 -0.77999997 0.94700003 15
7.1240001 -0.84600002 1.125 14
7.6729999 -0.92699999 1.335 14
8.3269997 -1.022 1.5829999 14
0 0 0 50
10.097 -1.28 2.2520001 13
0 6.1440001 0 0
0 0 0 0
0 0 0 0
0 0 0 255
6.6859999 -0.83700001 0.954 15
7.1479998 -0.90899998 1.133 14
7.7069998 -0.99400002 1.345 14
8.3629999 -1.095 1.595 14
9.2119999 -1.226 1.908 15
10.148 -1.372 2.27 13
6.717 -0.89600003 0.96100003 14
7.1690001 -0.97000003 1.14 14
7.7350001 -1.062 1.354 13
8.3990002 -1.17 1.607 14
9.2629995 -1.3099999 1.924 14
10.213 -1.467 2.2920001 13
0 0 0 50
7.2059999 -1.034 1.15 14
7.7659998 -1.131 1.364 14
8.4379997 -1.2460001 1.62 13
9.309 -1.396 1.941 14
10.272 -1.564 2.312 13
6.7600002 -1.013 0.97500002 13
7.2340002 -1.099 1.159 14
7.8109999 -1.202 1.378 13
8.4870005 -1.325 1.635 21
9.3549995 -1.4809999 1.957 14
10.331 -1.66 2.3329999 13
6.777 -1.071 0.98199999 12
7.2639999 -1.163 1.169 15
7.8410001 -1.272 1.388 13
8.5310001 -1.403 1.65 25
9.4180002 -1.5700001 1.977 14
10.413 -1.761 2.3599999 13
6.8070002 -1.132 0.991 12
7.2989998 -1.229 1.179 14
0 0 0 50
8.5769997 -1.482 1.666 26
9.4680004 -1.659 1.995 14
10.491 -1.864 2.3870001 13
6.836 -1.193 1 12
7.3369999 -1.296 1.191 14
7.9260001 -1.418 1.415 13
8.632 -1.5650001 1.683 14
9.5010004 -1.745 2.0109999 22
10.572 -1.969 2.415 13
6.8600001 -1.2539999 1.008 12
7.3730001 -1.364 1.202 14
7.9530001 -1.49 1.427 14
8.684 -1.647 1.701 15
9.5959997 -1.844 2.04 32
10.666 -2.0780001 2.447 16
6.8959999 -1.318 1.0190001 15
0 0 0 50
8.0059996 -1.566 1.443 14
8.7340002 -1.73 1.7180001 14
9.6780005 -1.941 2.066 29
10.767 -2.1889999 2.4809999 16
6.9229999 -1.3789999 1.028 15
7.4499998 -1.501 1.227 15
8.0500002 -1.641 1.4579999 13
8.7889996 -1.814 1.737 15
9.7480001 -2.0380001 2.0899999 16
10.857 -2.3 2.5120001 15
6.9450002 -1.441 1.0369999 14
7.4819999 -1.5700001 1.239 13
8.1120005 -1.722 1.476 13
8.8590002 -1.903 1.76 14
9.8240004 -2.1370001 2.1170001 16
10.943 -2.411 2.5439999 16
6.9720001 -1.5039999 1.0470001 14
0 0 0 50
8.1490002 -1.798 1.4910001 13
8.9139996 -1.99 1.779 14
9.9029999 -2.2379999 2.1440001 14
11.047 -2.5280001 2.5810001 15
7.007 -1.5700001 1.059 14
7.5409999 -1.707 1.262 13
8.1940002 -1.877 1.507 13
8.9750004 -2.0799999 1.801 15
9.9750004 -2.339 2.1700001 15
11.178 -2.654 2.6240001 14
7.039 -1.635 1.0700001 14
7.5830002 -1.78 1.277 12
8.2349997 -1.955 1.523 13
9.0480003 -2.1730001 1.825 14
10.077 -2.4489999 2.204 15
0 0 0 50
7.079 -1.702 1.0829999 15
7.6269999 -1.854 1.2920001 14
8.2840004 -2.0350001 1.54 13
9.1040001 -2.263 1.846 14
10.162 -2.5550001 2.234 14
11.39 -2.8989999 2.701 11
7.118 -1.771 1.095 15
7.6750002 -1.929 1.307 13
8.3479996 -2.1210001 1.561 13
9.1960001 -2.3629999 1.875 13
10.28 -2.6719999 2.2720001 15
11.547 -3.0380001 2.7520001 13
0 6.1440001 0 0
0 0 0 0
0 0 0 0
0 0 0 255
7.165 -1.842 1.11 15
7.724 -2.0050001 1.324 13
8.4090004 -2.207 1.582 13
9.2670002 -2.4590001 1.9 13
10.369 -2.783 2.3039999 15
11.656 -3.1659999 2.793 12
7.1960001 -1.908 1.122 15
7.7740002 -2.0829999 1.34 13
8.474 -2.2939999 1.603 18
9.3509998 -2.5599999 1.928 13
10.437 -2.8889999 2.332 13
0 0 0 50
7.237 -1.979 1.135 14
7.8239999 -2.161 1.357 13
8.5389996 -2.3829999 1.625 14
9.4160004 -2.6559999 1.9529999 14
10.543 -3.007 2.369 13
11.912 -3.4389999 2.885 10
7.29 -2.053 1.151 14
7.881 -2.2420001 1.376 12
8.6110001 -2.4749999 1.649 13
9.5089998 -2.7620001 1.983 14
10.664 -3.1329999 2.4100001 11
12.057 -3.5829999 2.9360001 10
7.336 -2.1259999 1.166 14
7.9359999 -2.323 1.3940001 13
8.6920004 -2.5699999 1.674 13
9.5790005 -2.8629999 2.01 14
10.768 -3.2539999 2.447 14
12.201 -3.73 2.9879999 11
7.382 -2.2 1.181 14
7.987 -2.4030001 1.4119999 13
8.7530003 -2.661 1.696 13
9.665 -2.9690001 2.039 14
10.878 -3.378 2.4860001 12
12.364 -3.8829999 3.0450001 11
7.4299998 -2.2750001 1.197 15
8.052 -2.4890001 1.433 12
8.823 -2.7539999 1.72 13
9.7609997 -3.0799999 2.072 14
11.022 -3.5150001 2.533 10
12.548 -4.0479999 3.108 12
7.48 -2.352 1.2130001 16
8.1140003 -2.5739999 1.4529999 13
8.901 -2.852 1.7460001 12
9.8559999 -3.191 2.105 13
11.123 -3.6400001 2.5710001 10
12.725 -4.2119999 3.1689999 12
7.5209999 -2.425 1.228 14
8.1660004 -2.658 1.472 14
8.9759998 -2.95 1.772 12
9.9530001 -3.3050001 2.138 13
11.243 -3.7739999 2.6140001 10
12.868 -4.368 3.223 12
0 0 0 50
8.2379999 -2.7479999 1.494 15
9.059 -3.0510001 1.799 14
10.047 -3.4200001 2.171 14
11.373 -3.9119999 2.6589999 11
13.075 -4.5479999 3.293 14
7.6230001 -2.582 1.262 14
8.3009996 -2.8369999 1.515 15
9.1359997 -3.1530001 1.826 15
10.138 -3.5339999 2.204 12
11.502 -4.0510001 2.7049999 12
13.26 -4.7220001 3.358 13
7.6719999 -2.6600001 1.278 14
8.3710003 -2.928 1.538 14
9.2019997 -3.25 1.85 13
10.23 -3.6489999 2.237 14
11.655 -4.2010002 2.757 12
13.451 -4.9029999 3.4260001 15
7.73 -2.743 1.2970001 14
8.434 -3.0190001 1.559 15
9.2790003 -3.3529999 1.877 13
10.316 -3.7639999 2.2690001 11
11.788 -4.3470001 2.8039999 13
13.653 -5.0900002 3.4960001 15
7.7880001 -2.825 1.3150001 14
8.5109997 -3.1140001 1.5829999 14
9.3669996 -3.46 1.906 13
10.415 -3.8840001 2.3039999 10
11.936 -4.4990001 2.855 13
13.848 -5.277 3.566 15
7.8439999 -2.9070001 1.3329999 14
8.5780001 -3.207 1.6059999 14
9.434 -3.5599999 1.931 13
10.538 -4.0159998 2.345 10
12.088 -4.6539998 2.908 13
14.044 -5.4660001 3.6370001 15
7.8889999 -2.9860001 1.349 14
0 0 0 50
9.5360003 -3.674 1.9630001 12
10.667 -4.151 2.3870001 12
12.258 -4.8179998 2.9649999 14
14.276 -5.6719999 3.7160001 15
0 6.1440001 0 0
0 0 0 0
0 0 0 0
0 0 0 255
7.948 -3.0710001 1.368 14
8.7019997 -3.391 1.649 14
9.6120005 -3.779 1.99 12
10.756 -4.27 2.4200001 10
12.396 -4.9699998 3.0139999 14
14.467 -5.8639998 3.7850001 17
8.0050001 -3.155 1.386 14
8.7700005 -3.4860001 1.671 14
9.691 -3.8859999 2.0179999 13
10.853 -4.3930001 2.4549999 11
12.544 -5.1300001 3.0669999 14
14.741 -6.0910001 3.8770001 18
8.0579996 -3.2379999 1.404 14
8.8439999 -3.5829999 1.6950001 14
9.7670002 -3.9920001 2.0450001 11
10.954 -4.5190001 2.4909999 11
12.692 -5.289 3.119 15
15.039 -6.3319998 3.9749999 21
8.1190004 -3.323 1.4220001 14
8.915 -3.6789999 1.7180001 13
9.8439999 -4.099 2.072 11
11.075 -4.6550002 2.5320001 11
12.859 -5.4580002 3.1760001 13
15.225 -6.5300002 4.0450001 18
8.1709995 -3.4059999 1.4400001 14
8.9820004 -3.7750001 1.74 13
9.9189997 -4.2049999 2.099 11
11.174 -4.7820001 2.5669999 12
13.036 -5.6339998 3.2349999 16
15.463 -6.7519999 4.1279998 17
8.224 -3.49 1.457 14
9.0340004 -3.865 1.76 13
10.007 -4.3179998 2.128 10
11.281 -4.9130001 2.605 12
13.205 -5.8060002 3.293 16
15.698 -6.973 4.21 17
8.2849998 -3.5769999 1.476 14
9.0909996 -3.9560001 1.78 14
10.089 -4.4289999 2.1559999 9
11.402 -5.0500002 2.645 12
13.352 -5.9710002 3.346 17
16.011999 -7.2340002 4.3140001 16
0 0 0 50
9.1700001 -4.0580001 1.804 13
10.168 -4.5380001 2.184 9
11.526 -5.1900001 2.6860001 12
13.514 -6.1440001 3.401 15
16.242001 -7.4590001 4.395 15
8.3950005 -3.7460001 1.511 14
9.2209997 -4.1469998 1.823 14
10.25 -4.6490002 2.211 9
11.627 -5.3210001 2.7219999 13
13.66 -6.3099999 3.4519999 15
16.482 -7.691 4.4790001 13
8.441 -3.826 1.526 14
9.2819996 -4.2399998 1.8430001 14
10.34 -4.763 2.2409999 10
11.731 -5.4510002 2.7579999 13
13.796 -6.4710002 3.5020001 16
16.684999 -7.9039998 4.552 14
8.4980001 -3.9119999 1.543 14
9.349 -4.3369999 1.865 14
10.403 -4.8649998 2.263 10
11.844 -5.5869999 2.796 13
13.992 -6.6620002 3.5650001 19
16.906 -8.1280003 4.6300001 14
8.5380001 -3.9879999 1.558 13
9.401 -4.4250002 1.883 12
10.478 -4.9710002 2.289 12
11.957 -5.7220001 2.8329999 16
14.113 -6.8150001 3.609 19
17.127001 -8.3529997 4.7080002 12
8.5810003 -4.066 1.572 15
9.4680004 -4.52 1.903 13
10.548 -5.0739999 2.313 12
12.055 -5.849 2.8659999 16
14.267 -6.9850001 3.661 17
17.306999 -8.5559998 4.7740002 12
8.6309996 -4.1459999 1.586 14
9.5150003 -4.6040001 1.92 13
10.622 -5.1799998 2.3369999 12
12.158 -5.9780002 2.9000001 16
14.392 -7.1409998 3.7049999 17
17.625999 -8.8290005 4.8769999 12
8.6689997 -4.2199998 1.599 14
9.5699997 -4.6919999 1.937 11
10.677 -5.2750001 2.3559999 12
12.252 -6.1030002 2.9319999 16
14.568 -7.3210001 3.7609999 19
17.747 -9.0019999 4.9239998 11
8.7049999 -4.2919998 1.61 14
9.6029997 -4.7680001 1.95 11
10.732 -5.369 2.375 13
12.349 -6.2290001 2.964 16
14.682 -7.4689999 3.802 17
17.938999 -9.2119999 4.9910002 11
0 6.1440001 0 0
0 0 0 0
0 0 0 0
0 0 0 255
8.7399998 -4.362 1.622 13
9.6269999 -4.8379998 1.96 9
10.783 -5.4590001 2.3929999 12
12.427 -6.342 2.9890001 17
14.851 -7.645 3.855 17
18.139 -9.4230003 5.059 12
0 0 0 50
9.6750002 -4.9190001 1.974 11
10.842 -5.553 2.4119999 12
12.487 -6.4460001 3.0109999 16
14.997 -7.8060002 3.902 19
18.349001 -9.6379995 5.1279998 11
8.7939997 -4.4910002 1.6390001 14
9.7049999 -4.9889998 1.985 10
10.878 -5.632 2.424 13
12.563 -6.5539999 3.0350001 13
15.12 -7.954 3.941 19
18.613001 -9.8789997 5.2129998 13
8.8249998 -4.5549998 1.648 14
9.7489996 -5.0640001 1.998 10
10.925 -5.7150002 2.4389999 13
12.614 -6.6490002 3.053 14
15.21 -8.0819998 3.97 18
18.819 -10.088 5.2789998 36
8.8439999 -4.6110001 1.654 15
9.7709999 -5.1269999 2.0050001 11
10.953 -5.7859998 2.4489999 12
12.673 -6.744 3.0710001 14
15.301 -8.2089996 4 17
18.667999 -10.101 5.243 29
8.8690004 -4.6690001 1.661 14
9.7989998 -5.1900001 2.013 10
11.005 -5.868 2.464 13
12.718 -6.8309999 3.085 14
15.404 -8.3389997 4.0310001 15
18.625 -10.167 5.237 11
8.8850002 -4.7189999 1.665 14
9.8129997 -5.244 2.017 10
11.026 -5.9299998 2.47 14
12.757 -6.9099998 3.098 15
15.414 -8.4130001 4.0370002 19
18.903999 -10.404 5.3189998 9
8.8929996 -4.7639999 1.668 15
9.8179998 -5.29 2.0190001 11
11.049 -5.9910002 2.477 14
12.776 -6.9759998 3.1029999 17
15.515 -8.5349998 4.0650001 17
19.018 -10.548 5.3530002 12
8.8959999 -4.803 1.668 14
9.8400002 -5.3429999 2.0239999 11
11.058 -6.0419998 2.4790001 14
12.809 -7.046 3.112 16
15.678 -8.6879997 4.1090002 21
18.981001 -10.601 5.3439999 13
8.908 -4.8460002 1.67 14
9.8450003 -5.3850002 2.0250001 11
11.075 -6.0949998 2.4820001 14
12.814 -7.098 3.1129999 14
15.711 -8.7650003 4.1170001 29
18.787001 -10.563 5.2880001 14
8.9049997 -4.8779998 1.669 14
9.8500004 -5.4239998 2.0239999 11
11.079 -6.1370001 2.4820001 14
12.814 -7.1430001 3.1110001 15
15.615 -8.7650003 4.0900002 29
18.618999 -10.531 5.237 11
8.901 -4.9070001 1.666 14
9.8380003 -5.4510002 2.02 11
11.071 -6.1690001 2.4779999 13
12.813 -7.184 3.108 16
14.94 -8.4329996 3.9100001 20
14.848 -8.4429998 4.1739998 20
8.9040003 -4.9369998 1.664 13
9.8409996 -5.4829998 2.0179999 11
11.058 -6.1950002 2.4719999 13
12.785 -7.2049999 3.098 15
14.807 -8.3999996 3.8710001 54
14.699 -8.3990002 4.1279998 56
8.8900003 -4.9549999 1.659 13
9.8149996 -5.4959998 2.01 11
11.033 -6.211 2.4619999 14
12.75 -7.2179999 3.0840001 17
14.79 -8.4259996 3.8610001 69
14.678 -8.4209995 4.1160002 92
8.875 -4.9689999 1.653 15
9.7950001 -5.5089998 2.0020001 11
11.01 -6.223 2.4530001 13
12.726 -7.2329998 3.0739999 16
14.775 -8.4499998 3.8499999 71
14.666 -8.4449997 4.1059999 94
8.8590002 -4.98 1.646 15
9.7690001 -5.5149999 1.992 11
10.984 -6.2309999 2.4419999 14
12.673 -7.2280002 3.0550001 16
14.765 -8.4709997 3.839 71
14.666 -8.4689999 4.098 90
0 6.1440001 0 0
0 0 0 0
0 0 0 0
0 0 0 255
8.835 -4.9840002 1.637 14
9.7530003 -5.5240002 1.984 11
10.937 -6.223 2.4260001 15
12.614 -7.2140002 3.033 16
14.758 -8.4899998 3.829 69
14.659 -8.4860001 4.0869999 80
8.8199997 -4.9899998 1.6289999 15
9.7159996 -5.5180001 1.97 11
10.91 -6.223 2.4130001 15
12.546 -7.191 3.0090001 15
14.759 -8.507 3.8199999 66
14.662 -8.5030003 4.0770001 73
8.7810001 -4.9790001 1.6160001 15
9.6730003 -5.5050001 1.955 11
10.845 -6.197 2.391 15
12.479 -7.165 2.984 14
14.742 -8.5089998 3.8039999 63
14.659 -8.5109997 4.0650001 73
8.7600002 -4.9749999 1.6059999 14
9.6339998 -5.4899998 1.9400001 11
10.786 -6.171 2.3699999 13
12.418 -7.1370001 2.9590001 14
14.74 -8.5139999 3.7909999 57
14.661 -8.5170002 4.053 73
8.71 -4.9530001 1.59 15
9.5909996 -5.4710002 1.924 11
10.734 -6.1459999 2.3499999 13
12.351 -7.1020002 2.9330001 17
14.731 -8.5109997 3.776 50
14.667 -8.5200005 4.04 73
8.6789999 -4.9369998 1.577 15
9.5769997 -5.4640002 1.9119999 12
10.673 -6.1100001 2.3269999 12
12.243 -7.0380001 2.8959999 15
14.711 -8.4960003 3.757 40
14.671 -8.5170002 4.0279999 73
8.6379995 -4.9130001 1.562 14
9.4960003 -5.4159999 1.888 11
10.604 -6.0679998 2.302 13
12.164 -6.987 2.8659999 16
14.536 -8.3859997 3.698 27
14.679 -8.5100002 4.0139999 78
8.6070004 -4.8920002 1.549 15
9.441 -5.3790002 1.868 12
10.541 -6.0250001 2.2780001 14
12.073 -6.9250002 2.832 19
14.426 -8.309 3.655 27
14.69 -8.5010004 4.0009999 73
8.559 -4.8590002 1.5319999 15
9.4060001 -5.3509998 1.852 13
10.475 -5.9759998 2.253 13
11.964 -6.849 2.7950001 15
14.288 -8.2110004 3.6040001 26
14.703 -8.4879999 3.9879999 78
8.5129995 -4.823 1.516 14
9.3479996 -5.3070002 1.831 12
10.393 -5.9159999 2.2249999 13
11.867 -6.776 2.7579999 15
14.112 -8.0880003 3.5439999 25
14.72 -8.4720001 3.9749999 73
8.474 -4.789 1.5 15
9.3050003 -5.2680001 1.813 13
10.319 -5.8559999 2.197 13
11.753 -6.6890001 2.7179999 15
13.899 -7.9380002 3.473 24
14.737 -8.4499998 3.961 77
8.4289999 -4.7490001 1.483 15
9.2290001 -5.2080002 1.788 13
10.238 -5.79 2.168 13
11.641 -6.5999999 2.6789999 17
13.664 -7.7729998 3.398 20
14.753 -8.4239998 3.947 72
8.375 -4.7020001 1.464 14
9.1700001 -5.1550002 1.766 14
10.15 -5.7160001 2.138 12
11.513 -6.5 2.6359999 17
13.47 -7.6269999 3.3329999 18
14.779 -8.3979998 3.934 55
8.309 -4.6440001 1.444 15
9.1059999 -5.0960002 1.743 13
10.071 -5.645 2.1099999 12
11.399 -6.4029999 2.595 15
13.294 -7.4889998 3.273 16
14.938 -8.4420004 3.9560001 22
8.2539997 -4.5910001 1.425 15
9.0380001 -5.0320001 1.72 13
9.9870005 -5.5679998 2.0799999 12
11.28 -6.3010001 2.5539999 14
13.14 -7.3590002 3.217 15
15.671 -8.8039999 4.1300001 28
8.2040005 -4.539 1.4069999 15
8.9729996 -4.967 1.697 14
9.9180002 -5.4980001 2.053 12
11.145 -6.1880002 2.5090001 15
12.973 -7.2189999 3.1589999 15
15.596 -8.7040005 4.0879998 25
0 6.1440001 0 0
0 0 0 0
0 0 0 0
0 0 0 255
8.1520004 -4.4829998 1.388 15
8.9119997 -4.9029999 1.675 14
9.842 -5.4200001 2.0250001 11
11.04 -6.0890002 2.4719999 14
12.827 -7.0890002 3.1070001 14
15.291 -8.4729996 3.987 19
8.1020002 -4.4260001 1.37 16
8.8509998 -4.8369999 1.653 14
9.75 -5.3319998 1.994 11
10.918 -5.9790001 2.4300001 13
12.682 -6.9569998 3.0539999 13
14.93 -8.21 3.8729999 22
8.0480003 -4.3649998 1.352 15
8.7849998 -4.7649999 1.63 14
9.6619997 -5.244 1.964 10
10.816 -5.8759999 2.3929999 13
12.508 -6.8060002 2.9949999 15
14.722 -8.0279999 3.7969999 22
7.9910002 -4.3010001 1.3329999 14
8.7309999 -4.698 1.609 14
9.5810003 -5.1570001 1.9349999 10
10.711 -5.77 2.3559999 12
12.357 -6.6659999 2.9430001 12
14.471 -7.822 3.7119999 17
7.9380002 -4.237 1.3150001 15
8.6599998 -4.6209998 1.585 15
9.507 -5.073 1.909 11
10.604 -5.6620002 2.319 12
12.222 -6.533 2.8929999 15
14.246 -7.6279998 3.6340001 18
7.8909998 -4.1750002 1.298 15
8.6000004 -4.5469999 1.5650001 15
9.4280005 -4.9840002 1.881 12
10.51 -5.5580001 2.2839999 12
12.06 -6.3850002 2.839 14
13.99 -7.4180002 3.55 15
7.8270001 -4.1020002 1.279 15
8.5380001 -4.4710002 1.543 16
9.3760004 -4.908 1.859 12
10.417 -5.454 2.2509999 12
11.92 -6.2459998 2.79 15
13.8 -7.2410002 3.4820001 17
7.783 -4.0380001 1.263 15
8.4779997 -4.3940001 1.522 16
9.2819996 -4.809 1.829 13
10.321 -5.3470001 2.217 12
11.784 -6.1090002 2.743 15
13.609 -7.0630002 3.415 17
7.724 -3.9660001 1.244 15
8.4130001 -4.3150001 1.501 15
9.2110004 -4.7199998 1.804 14
10.221 -5.237 2.1830001 11
11.638 -5.9650002 2.694 14
13.428 -6.8889999 3.352 14
7.6669998 -3.8929999 1.227 15
8.3509998 -4.2340002 1.48 15
9.1459999 -4.6329999 1.781 13
10.148 -5.1389999 2.155 11
11.502 -5.8260002 2.648 14
13.224 -6.7020001 3.283 15
7.6220002 -3.825 1.211 15
8.2950001 -4.1560001 1.461 14
9.0860004 -4.5479999 1.7589999 14
10.055 -5.0310001 2.1229999 11
11.375 -5.691 2.6040001 13
13.077 -6.5450001 3.23 17
7.5739999 -3.7550001 1.196 14
8.2360001 -4.0760002 1.442 15
9.0170002 -4.4569998 1.735 14
9.96 -4.9190001 2.0910001 10
11.262 -5.5609999 2.5639999 13
12.884 -6.3639998 3.165 16
7.533 -3.687 1.182 14
8.1859999 -3.9990001 1.424 16
8.9440002 -4.3629999 1.711 14
9.8710003 -4.8119998 2.0610001 11
11.154 -5.4349999 2.526 12
12.768 -6.2220001 3.1210001 16
7.4809999 -3.6140001 1.166 16
8.1309996 -3.9200001 1.406 16
8.8850002 -4.276 1.6900001 14
9.8179998 -4.7199998 2.039 12
11.043 -5.3060002 2.4879999 12
12.616 -6.0609999 3.069 13
7.4419999 -3.546 1.153 17
8.0790005 -3.8410001 1.39 17
8.823 -4.1869998 1.669 14
9.7360001 -4.6139998 2.0120001 14
10.925 -5.1739998 2.45 12
12.466 -5.902 3.0179999 14
7.401 -3.477 1.14 16
8.026 -3.7609999 1.372 16
8.7740002 -4.1030002 1.651 16
9.6610003 -4.5120001 1.9859999 14
10.858 -5.0650001 2.4230001 11
12.318 -5.744 2.967 14
0 6.1440001 0 0
0 0 0 0
0 0 0 0
0 0 0 255
7.348 -3.401 1.125 18
7.974 -3.6800001 1.3559999 16
8.7180004 -4.0159998 1.632 17
9.6020002 -4.415 1.964 16
10.748 -4.9369998 2.3870001 11
12.194 -5.5970001 2.9230001 13
7.3169999 -3.3340001 1.114 18
7.9310002 -3.6040001 1.342 17
8.6529999 -3.9230001 1.612 16
9.5209999 -4.309 1.938 16
10.664 -4.8200002 2.3570001 11
12.076 -5.454 2.8829999 12
7.2810001 -3.266 1.103 16
7.8870001 -3.527 1.3279999 16
8.6029997 -3.8380001 1.595 15
9.4589996 -4.21 1.9170001 14
10.573 -4.6999998 2.3269999 9
11.948 -5.3049998 2.839 11
7.2420001 -3.194 1.091 16
7.8379998 -3.4460001 1.313 15
8.5489998 -3.7490001 1.577 15
9.401 -4.1139998 1.896 14
10.499 -4.5869999 2.3 9
11.844 -5.1690001 2.803 11
7.2080002 -3.125 1.081 17
7.796 -3.369 1.3 16
8.5 -3.6630001 1.561 15
9.335 -4.0149999 1.875 14
10.406 -4.4660001 2.27 5
11.72 -5.0240002 2.7620001 11
7.1810002 -3.059 1.071 18
7.7550001 -3.293 1.2869999 16
8.4460001 -3.576 1.545 15
9.2860003 -3.9219999 1.857 14
10.341 -4.3590002 2.247 9
11.62 -4.8899999 2.7279999 11
7.1479998 -2.9909999 1.062 17
7.723 -3.22 1.276 16
8.4130001 -3.4960001 1.5319999 16
9.2189999 -3.8210001 1.837 13
10.268 -4.2459998 2.223 10
11.53 -4.7610002 2.697 10
7.1209998 -2.924 1.053 18
7.684 -3.1429999 1.265 16
8.3620005 -3.4089999 1.517 16
9.1879997 -3.7360001 1.824 14
10.192 -4.1350002 2.198 11
11.433 -4.6290002 2.665 10
7.092 -2.8559999 1.045 17
7.6399999 -3.0650001 1.253 16
8.3240004 -3.3280001 1.505 16
9.1300001 -3.6400001 1.806 14
10.13 -4.0279999 2.177 12
11.35 -4.5040002 2.6359999 10
7.0630002 -2.7880001 1.0369999 17
7.618 -2.9949999 1.244 16
8.2770004 -3.2420001 1.4910001 16
9.0719995 -3.543 1.788 14
10.069 -3.9219999 2.1570001 14
11.263 -4.3779998 2.6070001 10
7.0440001 -2.724 1.03 18
7.5809999 -2.9189999 1.234 16
8.2329998 -3.1589999 1.478 15
9.0249996 -3.451 1.773 14
10.011 -3.8169999 2.1370001 12
11.187 -4.256 2.582 9
7.0209999 -2.658 1.023 19
7.546 -2.8440001 1.225 17
8.1960001 -3.0769999 1.467 15
8.9759998 -3.358 1.758 14
9.941 -3.7079999 2.1159999 14
11.124 -4.1389999 2.5599999 9
6.9970002 -2.5910001 1.017 17
7.5250001 -2.7739999 1.2180001 15
8.1549997 -2.994 1.455 15
8.9399996 -3.2709999 1.7460001 15
9.9049997 -3.612 2.1029999 14
11.047 -4.0180001 2.5350001 10
6.974 -2.5250001 1.01 17
7.4980001 -2.7019999 1.21 16
8.1199999 -2.914 1.4450001 15
8.9119997 -3.187 1.7359999 14
9.8520002 -3.5120001 2.086 14
10.984 -3.904 2.5139999 10
6.9530001 -2.46 1.005 18
7.4689999 -2.6300001 1.202 17
8.0970001 -2.839 1.437 15
8.8459997 -3.089 1.7180001 14
9.8050003 -3.4130001 2.0710001 13
10.927 -3.7920001 2.494 8
0 0 0 50
7.4419999 -2.559 1.1950001 16
8.0570002 -2.7579999 1.427 15
8.8219995 -3.0079999 1.71 14
9.7740002 -3.3210001 2.059 13
10.903 -3.694 2.483 13
0 6.1440001 0 0
0 0 0 0
0 0 0 0
0 0 0 255
6.9029999 -2.3280001 0.99299997 16
7.421 -2.49 1.189 15
8.04 -2.6849999 1.421 16
8.7919998 -2.924 1.7 15
9.7229996 -3.221 2.0439999 14
10.828 -3.5769999 2.461 10
6.8909998 -2.266 0.98900002 18
7.4120002 -2.425 1.1849999 18
8.0229998 -2.612 1.415 16
8.7559996 -2.8380001 1.6900001 15
9.6890001 -3.128 2.033 14
10.788 -3.471 2.4460001 12
6.8740001 -2.2030001 0.98500001 17
7.3829999 -2.3529999 1.178 17
7.9829998 -2.5309999 1.405 16
0 0 0 50
9.6569996 -3.036 2.0220001 14
10.725 -3.3599999 2.428 11
6.8649998 -2.142 0.98199999 18
7.3759999 -2.2880001 1.175 19
7.96 -2.457 1.399 15
8.6990004 -2.6730001 1.673 15
9.6160002 -2.9419999 2.01 14
10.668 -3.2509999 2.4100001 13
6.8530002 -2.0799999 0.97899997 17
7.3540001 -2.2190001 1.17 18
7.9450002 -2.3840001 1.3940001 13
8.6700001 -2.589 1.665 14
9.5819998 -2.849 2 14
10.649 -3.154 2.402 11
6.849 -2.02 0.977 17
7.3410001 -2.152 1.166 16
7.9190001 -2.309 1.388 14
0 0 0 50
9.5539999 -2.7590001 1.9910001 13
10.592 -3.046 2.3859999 10
6.8249998 -1.954 0.97299999 16
7.3200002 -2.0829999 1.1619999 16
7.8979998 -2.2349999 1.383 13
8.6190004 -2.4260001 1.65 14
9.5310001 -2.6700001 1.984 13
10.54 -2.9389999 2.3710001 11
6.8109999 -1.891 0.97000003 16
7.3060002 -2.016 1.159 17
7.8790002 -2.1619999 1.378 15
8.5880003 -2.3440001 1.643 15
9.4969997 -2.579 1.974 13
10.514 -2.842 2.362 12
6.8169999 -1.834 0.97000003 17
7.2919998 -1.95 1.155 17
7.8670001 -2.0910001 1.374 16
0 0 0 50
9.4729996 -2.49 1.967 13
10.511 -2.7490001 2.358 12
6.803 -1.772 0.96799999 16
7.283 -1.8839999 1.153 16
7.8540001 -2.02 1.3710001 14
8.5509996 -2.1849999 1.632 14
9.4630003 -2.4059999 1.9630001 13
10.452 -2.6429999 2.342 11
6.7880001 -1.709 0.96499997 16
7.2670002 -1.817 1.15 15
7.8369999 -1.947 1.367 13
8.5410004 -2.109 1.6289999 13
9.4280005 -2.3150001 1.954 13
10.437 -2.55 2.3369999 11
6.79 -1.651 0.96499997 16
7.2610002 -1.753 1.148 17
0 0 0 50
8.5190001 -2.03 1.624 14
9.4180002 -2.2320001 1.95 13
10.397 -2.45 2.326 12
6.7750001 -1.589 0.963 16
7.25 -1.688 1.146 16
7.8150001 -1.806 1.3609999 15
8.5129995 -1.955 1.6210001 14
9.382 -2.141 1.941 14
0 0 0 50
6.7750001 -1.53 0.963 16
7.2399998 -1.622 1.1440001 15
7.8060002 -1.7359999 1.359 13
8.5109997 -1.88 1.62 13
9.3710003 -2.0569999 1.938 13
10.354 -2.2590001 2.313 13
6.7649999 -1.469 0.96100003 16
7.2290001 -1.557 1.142 17
7.8070002 -1.67 1.359 14
8.4960003 -1.804 1.617 13
9.342 -1.97 1.931 13
10.273 -2.1530001 2.293 15
6.756 -1.408 0.95999998 16
7.2210002 -1.493 1.14 16
7.796 -1.599 1.3559999 14
8.4720001 -1.725 1.6109999 13
0 0 0 50
10.254 -2.059 2.2880001 16
0 6.1440001 0 0
0 0 0 0
0 0 0 0
0 0 0 255
6.756 -1.349 0.95999998 16
7.243 -1.434 1.1440001 17
7.7950001 -1.531 1.3559999 13
8.4560003 -1.648 1.608 14
9.3299999 -1.8049999 1.926 23
10.273 -1.974 2.2909999 12
6.7529998 -1.29 0.95899999 16
7.23 -1.369 1.142 16
7.783 -1.461 1.354 15
8.4399996 -1.572 1.604 14
0 0 0 50
10.262 -1.882 2.2869999 12
6.7509999 -1.2309999 0.95899999 16
7.2150002 -1.303 1.1390001 16
7.7620001 -1.3890001 1.35 17
8.4130001 -1.493 1.599 15
9.2410002 -1.626 1.9069999 21
10.245 -1.789 2.283 12
6.7420001 -1.17 0.958 16
7.211 -1.239 1.1390001 17
7.7550001 -1.3200001 1.349 16
8.4300003 -1.421 1.602 21
9.2550001 -1.548 1.909 14
0 0 0 50
6.7350001 -1.109 0.958 16
7.1989999 -1.174 1.137 18
7.75 -1.251 1.348 16
8.4180002 -1.346 1.599 19
9.2530003 -1.466 1.908 14
10.202 -1.603 2.2720001 13
6.73 -1.049 0.95700002 16
7.1919999 -1.11 1.136 17
7.7410002 -1.182 1.346 16
8.3920002 -1.268 1.594 15
9.2419996 -1.3839999 1.906 14
10.189 -1.511 2.2679999 14
6.711 -0.98799998 0.95499998 18
7.1849999 -1.046 1.136 18
0 0 0 50
8.3839998 -1.1950001 1.5930001 13
9.2229996 -1.3 1.902 13
10.159 -1.418 2.2609999 12
6.7059999 -0.92799997 0.95499998 17
7.1789999 -0.98199999 1.135 16
7.7270002 -1.045 1.344 15
8.3699999 -1.119 1.59 14
9.217 -1.2180001 1.9 13
10.138 -1.326 2.256 12
6.7160001 -0.87099999 0.95599997 16
7.171 -0.91799998 1.1339999 15
7.7199998 -0.97600001 1.3430001 14
8.3660002 -1.045 1.589 13
9.1999998 -1.136 1.897 13
10.123 -1.2359999 2.2520001 12
6.6989999 -0.81099999 0.954 18
7.1659999 -0.85500002 1.133 15
7.7150002 -0.90799999 1.342 15
0 0 0 50
9.1850004 -1.054 1.893 13
10.123 -1.146 2.2520001 12
6.6880002 -0.75 0.95300001 16
7.1630001 -0.79100001 1.133 16
7.7069998 -0.83899999 1.341 16
8.3540001 -0.89700001 1.587 14
9.1829996 -0.97299999 1.893 12
10.097 -1.056 2.2460001 12
6.6810002 -0.69099998 0.95200002 28
7.1529999 -0.72799999 1.132 16
7.697 -0.77100003 1.339 16
8.342 -0.824 1.585 15
9.1630001 -0.89200002 1.8890001 13
0 0 0 50
6.6729999 -0.63200003 0.95200002 36
7.1430001 -0.66500002 1.13 16
7.6830001 -0.704 1.337 16
8.3290005 -0.75099999 1.5829999 15
9.1520004 -0.81099999 1.886 13
10.05 -0.87599999 2.2349999 13
6.6719999 -0.57300001 0.95200002 37
