# .PCD v0.7 - Point Cloud Data file format
VERSION 0.7
FIELDS x y z intensity
SIZE 4 4 4 4
TYPE F F F F
COUNT 1 1 1 1
WIDTH 1676
HEIGHT 1
VIEWPOINT 0 0 0 1 0 0 0
POINTS 1676
DATA ascii
7.0430002 -1.674 1.057 15
7.599 -1.827 1.2690001 13
5.434 -1.268 0.458 16
5.7509999 -1.354 0.579 15
6.1069999 -1.452 0.71399999 18
6.5440001 -1.572 0.87400001 15
7.0570002 -1.7130001 1.0599999 15
7.6079998 -1.867 1.271 14
5.441 -1.296 0.45899999 15
5.7579999 -1.3839999 0.579 15
0 0 0 50
6.5510001 -1.605 0.875 16
7.059 -1.748 1.061 17
7.6149998 -1.905 1.272 13
5.4419999 -1.323 0.45899999 16
5.7519999 -1.41 0.57800001 17
6.1100001 -1.512 0.71499997 17
6.5539999 -1.637 0.875 16
7.0609999 -1.7819999 1.061 16
7.618 -1.942 1.273 13
5.4499998 -1.35 0.45899999 16
5.756 -1.438 0.57800001 16
6.1409998 -1.548 0.71700001 15
6.559 -1.669 0.875 16
7.0679998 -1.816 1.061 17
7.6240001 -1.978 1.273 14
5.4439998 -1.374 0.45699999 16
5.756 -1.464 0.57700002 15
6.138 -1.575 0.71600002 15
6.5599999 -1.699 0.87400001 16
7.066 -1.847 1.059 17
7.6199999 -2.0109999 1.272 14
5.4439998 -1.398 0.456 17
5.7600002 -1.49 0.57599998 16
6.132 -1.6 0.71399999 14
6.5510001 -1.725 0.87199998 16
7.0599999 -1.876 1.058 15
7.619 -2.043 1.27 13
5.4439998 -1.421 0.45500001 16
5.7470002 -1.512 0.574 16
6.1300001 -1.625 0.713 15
6.5560002 -1.753 0.87099999 16
7.0560002 -1.904 1.0549999 16
7.6160002 -2.073 1.267 13
0 6.1440001 0 0
0 0 0 0
0 0 0 0
0 0 0 255
5.434 -1.441 0.45199999 16
5.7449999 -1.534 0.57200003 17
6.1230001 -1.648 0.70999998 15
6.5440001 -1.776 0.86699998 15
7.0560002 -1.931 1.053 17
7.605 -2.1010001 1.263 13
5.434 -1.462 0.45100001 15
5.7509999 -1.559 0.56999999 16
6.1209998 -1.671 0.708 15
6.5419998 -1.801 0.86400002 16
7.0469999 -1.956 1.049 15
7.6129999 -2.131 1.262 14
5.4310002 -1.482 0.44800001 16
5.7379999 -1.576 0.56699997 16
6.0999999 -1.688 0.70300001 18
6.5289998 -1.8200001 0.86000001 16
7.0310001 -1.976 1.044 15
7.5910001 -2.152 1.255 14
5.4239998 -1.5 0.44499999 16
5.7280002 -1.594 0.56300002 16
6.0949998 -1.7079999 0.699 16
6.5180001 -1.84 0.85600001 17
7.0279999 -1.999 1.04 15
7.579 -2.1730001 1.249 13
5.4219999 -1.517 0.442 16
5.723 -1.612 0.56 16
6.1040001 -1.73 0.69700003 15
6.5139999 -1.86 0.852 17
7.0159998 -2.0179999 1.035 15
7.5619998 -2.1919999 1.243 13
5.4180002 -1.534 0.43900001 16
5.7210002 -1.6289999 0.55699998 15
6.0879998 -1.745 0.69199997 14
6.52 -1.881 0.84899998 19
6.9970002 -2.0339999 1.028 16
7.5430002 -2.2090001 1.235 13
5.402 -1.545 0.43399999 16
5.7119999 -1.6440001 0.55199999 16
6.079 -1.76 0.68699998 15
6.4910002 -1.892 0.84100002 16
6.9720001 -2.046 1.02 17
7.5240002 -2.224 1.227 12
5.3940001 -1.559 0.43000001 16
5.698 -1.655 0.54699999 15
6.059 -1.771 0.68099999 14
6.473 -1.903 0.83399999 16
6.9569998 -2.0599999 1.013 16
7.5050001 -2.237 1.219 14
5.3790002 -1.568 0.42500001 16
5.6830001 -1.666 0.542 19
6.0450001 -1.7819999 0.67500001 14
6.4520001 -1.913 0.82700002 16
6.9369998 -2.0710001 1.005 17
7.48 -2.2479999 1.209 14
5.3709998 -1.58 0.421 16
5.6690001 -1.675 0.53600001 20
6.0349998 -1.793 0.66900003 15
6.4320002 -1.9220001 0.81900001 16
6.9229999 -2.0810001 0.99699998 16
7.4580002 -2.257 1.199 13
5.3520002 -1.586 0.41499999 16
5.665 -1.686 0.53100002 15
6.0240002 -1.803 0.66299999 16
6.4159999 -1.9299999 0.81199998 15
6.901 -2.0880001 0.98799998 16
7.4260001 -2.2620001 1.188 14
5.3410001 -1.594 0.41 15
5.6420002 -1.691 0.52399999 16
6.0050001 -1.808 0.65600002 15
6.4000001 -1.938 0.80500001 16
6.875 -2.0929999 0.97899997 17
7.402 -2.267 1.178 15
5.3340001 -1.602 0.40400001 15
5.6240001 -1.696 0.51800001 16
5.98 -1.811 0.648 15
6.3759999 -1.941 0.796 15
6.8449998 -2.0940001 0.96799999 15
7.3639998 -2.266 1.165 15
5.3150001 -1.605 0.398 15
5.605 -1.699 0.51099998 17
5.9619999 -1.8150001 0.64099997 15
6.348 -1.941 0.78600001 15
6.8179998 -2.095 0.95700002 15
7.3330002 -2.266 1.152 16
5.2919998 -1.605 0.391 16
5.5900002 -1.702 0.50400001 17
5.9400001 -1.8150001 0.63200003 14
6.3280001 -1.942 0.77700001 15
6.7940001 -2.095 0.94700003 15
7.3060002 -2.2650001 1.141 15
5.2810001 -1.608 0.38499999 15
5.579 -1.704 0.49700001 15
5.9180002 -1.8150001 0.62400001 15
6.3010001 -1.9400001 0.76800001 15
6.7610002 -2.0910001 0.93599999 15
7.2750001 -2.2609999 1.128 14
0 6.1440001 0 0
0 0 0 0
0 0 0 0
0 0 0 255
5.2600002 -1.607 0.37799999 14
5.5139999 -1.6900001 0.486 14
5.902 -1.8150001 0.616 15
6.2750001 -1.937 0.75800002 15
6.73 -2.086 0.92400002 15
7.237 -2.2539999 1.114 12
5.244 -1.6059999 0.37200001 15
5.5320001 -1.699 0.48100001 15
5.8730001 -1.809 0.60699999 15
6.2470002 -1.931 0.74699998 14
6.704 -2.0810001 0.91299999 15
7.198 -2.244 1.1 12
5.2319999 -1.605 0.36500001 14
5.5050001 -1.693 0.47299999 16
5.822 -1.796 0.59500003 16
6.2189999 -1.924 0.73699999 15
6.6739998 -2.073 0.90100002 14
7.151 -2.23 1.085 13
5.217 -1.602 0.35800001 14
5.4910002 -1.6900001 0.46599999 16
5.8309999 -1.799 0.58899999 15
6.1859999 -1.915 0.72600001 15
6.6370001 -2.0610001 0.88800001 14
7.119 -2.2190001 1.071 14
5.1939998 -1.596 0.35100001 14
5.4749999 -1.6849999 0.458 17
5.8099999 -1.7920001 0.57999998 15
6.158 -1.905 0.71600002 15
6.5999999 -2.0480001 0.875 14
7.0809999 -2.2049999 1.057 14
5.1739998 -1.589 0.34299999 14
5.4489999 -1.676 0.449 16
5.7849998 -1.783 0.57099998 15
6.132 -1.895 0.70499998 16
6.572 -2.036 0.86400002 14
7.0370002 -2.188 1.041 13
5.158 -1.582 0.336 14
5.4299998 -1.668 0.44100001 16
5.7189999 -1.76 0.55699998 16
6.1030002 -1.882 0.69499999 16
6.5320001 -2.0190001 0.85100001 14
6.994 -2.1689999 1.026 14
5.1259999 -1.569 0.32800001 14
5.3940001 -1.653 0.43200001 15
5.6939998 -1.748 0.54799998 16
6.073 -1.868 0.68400002 15
6.5089998 -2.006 0.83999997 15
6.9520001 -2.1489999 1.011 14
5.1110001 -1.5599999 0.32100001 15
5.375 -1.643 0.42399999 16
5.6680002 -1.734 0.53899997 15
6.0430002 -1.852 0.67299998 16
6.4710002 -1.987 0.82700002 14
6.9130001 -2.128 0.99699998 14
5.0900002 -1.549 0.31400001 14
5.3470001 -1.628 0.41499999 16
5.6409998 -1.719 0.52999997 16
6.0149999 -1.836 0.662 17
6.4359999 -1.9680001 0.81400001 15
6.8709998 -2.105 0.98199999 14
5.066 -1.535 0.30599999 14
5.335 -1.617 0.40799999 16
5.6160002 -1.704 0.51999998 15
5.9889998 -1.819 0.65200001 15
6.4050002 -1.948 0.80199999 15
6.8379998 -2.0840001 0.96899998 15
5.0450001 -1.522 0.29899999 13
5.2979999 -1.598 0.398 15
5.5960002 -1.688 0.51099998 16
5.967 -1.802 0.64200002 16
6.3699999 -1.926 0.78899997 15
6.7919998 -2.0569999 0.95300001 16
5.0229998 -1.507 0.29100001 14
5.2880001 -1.586 0.391 15
5.5599999 -1.6670001 0.50099999 15
5.927 -1.779 0.63 19
6.3340001 -1.903 0.77700001 15
6.757 -2.0320001 0.94 15
5.0009999 -1.4910001 0.28400001 13
5.2649999 -1.568 0.38299999 15
5.5370002 -1.649 0.49200001 16
5.901 -1.758 0.62 15
6.3000002 -1.878 0.76499999 15
6.7210002 -2.006 0.926 14
4.987 -1.476 0.27700001 13
5.2360001 -1.549 0.375 14
5.5250001 -1.633 0.484 16
5.881 -1.739 0.611 14
6.2670002 -1.853 0.75300002 15
6.6849999 -1.979 0.91299999 14
4.954 -1.455 0.27000001 15
5.2119999 -1.529 0.36700001 14
5.493 -1.61 0.47499999 15
5.8390002 -1.711 0.59899998 15
6.2420001 -1.83 0.74199998 15
6.6490002 -1.95 0.89999998 15
0 6.1440001 0 0
0 0 0 0
0 0 0 0
0 0 0 255
4.9460001 -1.4400001 0.26300001 14
5.1960001 -1.511 0.36000001 15
5.4850001 -1.5930001 0.46799999 17
5.8260002 -1.691 0.59100002 14
6.21 -1.803 0.73100001 15
6.6170001 -1.921 0.88700002 16
4.9169998 -1.418 0.25600001 15
5.1700001 -1.489 0.352 14
5.4520001 -1.568 0.45899999 16
5.7979999 -1.666 0.58099997 14
6.177 -1.775 0.72000003 14
6.5679998 -1.887 0.87300003 18
4.8979998 -1.399 0.25 15
5.152 -1.4680001 0.345 14
5.4159999 -1.541 0.44999999 14
5.7410002 -1.632 0.56900001 15
6.1539998 -1.748 0.70999998 15
6.553 -1.8609999 0.86299998 14
4.8850002 -1.3789999 0.243 13
5.1389999 -1.448 0.338 14
5.4120002 -1.522 0.44299999 16
5.724 -1.608 0.56099999 17
6.1160002 -1.716 0.69800001 18
6.5180001 -1.8279999 0.85100001 15
4.868 -1.358 0.237 13
5.1040001 -1.421 0.33000001 14
5.382 -1.495 0.43399999 16
5.6880002 -1.5779999 0.551 17
6.085 -1.686 0.68800002 18
6.4790001 -1.793 0.838 14
4.8429999 -1.334 0.23100001 16
5.092 -1.399 0.324 14
5.3610001 -1.47 0.42699999 16
5.6669998 -1.551 0.542 16
0 0 0 0
6.4559999 -1.762 0.82800001 15
4.8299999 -1.313 0.22499999 14
5.0770001 -1.377 0.317 15
5.3379998 -1.444 0.419 15
5.6469998 -1.524 0.53500003 16
6.0240002 -1.623 0.66799998 16
6.4229999 -1.728 0.81599998 14
4.8150001 -1.291 0.219 14
5.0539999 -1.351 0.31099999 15
5.3189998 -1.418 0.412 16
5.6279998 -1.4960001 0.52700001 17
5.994 -1.59 0.65799999 17
6.395 -1.694 0.80599999 15
4.789 -1.265 0.214 14
5.0339999 -1.325 0.30500001 16
5.2989998 -1.39 0.40599999 15
5.6009998 -1.466 0.51899999 16
5.9689999 -1.558 0.64899999 16
6.3000002 -1.641 0.787 15
4.7740002 -1.2410001 0.208 15
5.0089998 -1.2970001 0.29899999 14
5.276 -1.362 0.39899999 16
5.5809999 -1.436 0.51099998 16
5.9359999 -1.524 0.63999999 15
6.3179998 -1.618 0.78399998 16
4.756 -1.216 0.204 16
4.994 -1.272 0.29300001 14
5.257 -1.334 0.39300001 16
5.5599999 -1.406 0.505 17
5.915 -1.492 0.63200003 17
6.2839999 -1.581 0.773 16
4.744 -1.192 0.199 15
4.98 -1.2460001 0.28799999 14
5.2449999 -1.307 0.38699999 17
5.5430002 -1.376 0.498 16
5.895 -1.459 0.62400001 17
6.2610002 -1.545 0.76499999 16
4.7290001 -1.166 0.19400001 16
4.961 -1.2180001 0.28299999 15
5.2179999 -1.275 0.38100001 16
5.5250001 -1.345 0.491 16
5.8730001 -1.425 0.61699998 17
6.237 -1.508 0.75599998 16
4.7119999 -1.1390001 0.19 16
4.9489999 -1.1900001 0.278 15
5.2090001 -1.247 0.37599999 16
5.5029998 -1.312 0.48500001 16
5.849 -1.39 0.61000001 17
6.224 -1.474 0.74900001 17
4.7049999 -1.114 0.186 14
4.9359999 -1.163 0.273 15
5.1939998 -1.2180001 0.37 15
5.4790001 -1.279 0.47799999 17
5.8210001 -1.353 0.602 16
6.197 -1.436 0.741 16
4.6890001 -1.087 0.182 17
4.9219999 -1.135 0.26899999 15
5.1750002 -1.187 0.36500001 16
5.4619999 -1.247 0.47299999 16
5.8039999 -1.319 0.59600002 16
6.1739998 -1.397 0.73299998 17
0 6.1440001 0 0
0 0 0 0
0 0 0 0
0 0 0 255
4.6799998 -1.0599999 0.178 17
4.8959999 -1.103 0.264 17
5.158 -1.156 0.36000001 17
5.4489999 -1.215 0.46799999 16
5.7779999 -1.2819999 0.58899999 15
6.1539998 -1.36 0.727 17
4.6659999 -1.0319999 0.175 16
4.8930001 -1.076 0.26100001 15
5.1469998 -1.126 0.35600001 15
5.4330001 -1.182 0.463 17
5.7740002 -1.25 0.58499998 15
6.132 -1.321 0.71899998 16
4.6560001 -1.005 0.17200001 17
4.881 -1.0470001 0.257 16
5.1350002 -1.095 0.352 15
5.4159999 -1.148 0.458 15
5.744 -1.211 0.57800001 16
6.112 -1.2819999 0.713 18
4.6420002 -0.97600001 0.168 16
4.8639998 -1.016 0.25299999 15
5.1199999 -1.063 0.34799999 16
5.3889999 -1.112 0.45300001 16
5.7329998 -1.176 0.57300001 15
6.092 -1.243 0.70700002 16
4.631 -0.94700003 0.16500001 18
4.8590002 -0.98699999 0.25099999 15
5.1090002 -1.031 0.345 16
5.3839998 -1.08 0.449 15
5.7160001 -1.14 0.56800002 16
6.0749998 -1.204 0.70099998 15
4.6230001 -0.91900003 0.163 17
4.842 -0.95599997 0.24699999 14
5.0939999 -0.99800003 0.34099999 17
5.3720002 -1.046 0.44499999 15
5.7030001 -1.103 0.56400001 14
6.0560002 -1.165 0.69599998 15
4.618 -0.89099997 0.16 20
4.836 -0.926 0.244 15
5.0890002 -0.96700001 0.338 17
5.3600001 -1.012 0.44100001 16
5.691 -1.067 0.55900002 15
6.0300002 -1.123 0.69 15
4.6059999 -0.861 0.15800001 18
4.8249998 -0.89499998 0.242 16
5.0710001 -0.93300003 0.33500001 16
5.348 -0.977 0.43799999 15
5.6760001 -1.029 0.55500001 15
6.026 -1.085 0.68599999 15
4.5900002 -0.82999998 0.156 19
4.8189998 -0.86400002 0.23899999 13
5.0640001 -0.90100002 0.33199999 17
5.335 -0.94099998 0.43399999 15
5.6570001 -0.991 0.551 15
6.0180001 -1.046 0.68300003 16
4.5929999 -0.80199999 0.154 20
4.8010001 -0.83099997 0.237 15
5.053 -0.86699998 0.329 16
5.3340001 -0.90799999 0.43200001 15
5.6479998 -0.954 0.54799998 15
5.9959998 -1.005 0.67799997 15
4.5760002 -0.76999998 0.152 17
4.8010001 -0.801 0.235 14
5.0440001 -0.83399999 0.32699999 15
5.3150001 -0.87099999 0.42899999 15
5.6430001 -0.917 0.54500002 15
5.974 -0.963 0.67299998 15
4.5749998 -0.741 0.15000001 19
4.79 -0.76800001 0.233 16
5.0359998 -0.80000001 0.32499999 15
5.3080001 -0.83600003 0.426 15
5.6300001 -0.87800002 0.542 15
5.9780002 -0.92500001 0.671 16
4.5640001 -0.70999998 0.149 16
4.7839999 -0.736 0.23100001 16
5.0310001 -0.76700002 0.32300001 15
5.2989998 -0.80000001 0.42399999 15
5.619 -0.83999997 0.53899997 15
5.9590001 -0.88200003 0.667 15
4.5689998 -0.68000001 0.148 18
4.7729998 -0.70300001 0.23 15
5.0120001 -0.73000002 0.31999999 16
5.2870002 -0.76300001 0.42199999 15
5.612 -0.801 0.537 15
5.9439998 -0.83999997 0.66399997 15
4.5560002 -0.648 0.146 16
4.7729998 -0.671 0.228 15
5.0100002 -0.69700003 0.31900001 15
5.2779999 -0.72600001 0.419 15
5.6100001 -0.764 0.53500003 15
5.9489999 -0.80199999 0.662 16
4.559 -0.61799997 0.145 17
4.7610002 -0.63800001 0.227 15
5.0050001 -0.662 0.317 14
5.283 -0.69099998 0.419 14
5.6020002 -0.72500002 0.53299999 15
5.9330001 -0.759 0.65899998 15
0 6.1440001 0 0
0 0 0 0
0 0 0 0
0 0 0 255
4.553 -0.58600003 0.14399999 18
4.7659998 -0.60600001 0.226 14
4.994 -0.62699997 0.31600001 13
5.2740002 -0.65399998 0.417 15
5.5830002 -0.68400002 0.52999997 15
5.9180002 -0.71600002 0.65600002 16
4.5450001 -0.55400002 0.14300001 16
4.7579999 -0.57200003 0.22499999 14
4.9920001 -0.59200001 0.315 15
5.2659998 -0.61699998 0.41499999 15
5.5770001 -0.64499998 0.528 15
5.901 -0.67400002 0.653 16
4.5510001 -0.52399999 0.14300001 18
4.7540002 -0.53899997 0.22400001 14
4.9910002 -0.55800003 0.31400001 14
5.2620001 -0.57999998 0.414 15
5.566 -0.60500002 0.52600002 15
5.902 -0.63300002 0.65200001 15
4.5339999 -0.49000001 0.142 16
4.737 -0.50400001 0.223 15
4.9840002 -0.52200001 0.31299999 14
5.2610002 -0.54299998 0.41299999 14
5.5599999 -0.56599998 0.52499998 14
5.8870001 -0.58999997 0.64899999 14
4.5359998 -0.458 0.142 15
4.75 -0.472 0.223 13
4.9720001 -0.486 0.31200001 16
5.2480001 -0.505 0.41100001 14
5.5440001 -0.52499998 0.52200001 17
5.8860002 -0.54799998 0.64899999 14
4.5279999 -0.42500001 0.141 14
4.7379999 -0.43700001 0.222 16
4.973 -0.45100001 0.31099999 14
5.2529998 -0.46799999 0.41100001 14
5.5440001 -0.48500001 0.52200001 16
5.8709998 -0.505 0.64600003 14
4.5339999 -0.39300001 0.141 18
4.7410002 -0.40400001 0.222 15
4.967 -0.41499999 0.31 14
5.2360001 -0.42899999 0.41 14
5.5359998 -0.44499999 0.52100003 15
5.862 -0.46200001 0.64399999 14
4.5190001 -0.36000001 0.14 15
4.7379999 -0.36899999 0.221 15
4.9619999 -0.37900001 0.30899999 13
5.2319999 -0.391 0.40900001 15
5.5300002 -0.405 0.51999998 14
5.8579998 -0.419 0.64300001 14
4.5310001 -0.32800001 0.14 17
4.7309999 -0.33399999 0.221 14
4.9580002 -0.34200001 0.30899999 14
5.2199998 -0.352 0.40700001 16
5.526 -0.36399999 0.51899999 14
5.849 -0.37599999 0.64200002 14
4.527 -0.294 0.14 17
4.7280002 -0.29899999 0.22 15
4.9499998 -0.30500001 0.308 14
5.2210002 -0.31400001 0.40700001 15
5.5289998 -0.324 0.51800001 14
5.8559999 -0.33399999 0.64200002 31
4.5159998 -0.25999999 0.14 17
4.7259998 -0.26499999 0.22 15
4.9460001 -0.26899999 0.308 17
5.2119999 -0.27500001 0.40599999 15
5.5159998 -0.28200001 0.51700002 16
5.8330002 -0.28999999 0.639 34
4.5219998 -0.227 0.14 17
4.7189999 -0.23 0.219 15
4.941 -0.23199999 0.30700001 17
5.2160001 -0.237 0.40599999 14
5.5110002 -0.242 0.51599997 15
5.8239999 -0.24600001 0.63800001 33
4.513 -0.193 0.139 16
4.711 -0.19400001 0.219 14
4.947 -0.19599999 0.30700001 15
5.2140002 -0.198 0.40599999 14
5.5159998 -0.20100001 0.51700002 27
5.822 -0.20299999 0.63700002 33
4.513 -0.15899999 0.139 18
4.7049999 -0.15800001 0.219 17
4.9359999 -0.15800001 0.30700001 15
5.1939998 -0.15800001 0.40400001 16
5.5009999 -0.15899999 0.51499999 34
5.8080001 -0.15800001 0.63599998 22
4.5089998 -0.125 0.139 18
4.7049999 -0.123 0.219 16
4.9299998 -0.121 0.30599999 15
5.1919999 -0.119 0.40400001 16
5.4980001 -0.117 0.514 34
5.816 -0.114 0.63599998 16
4.506 -0.090000004 0.139 19
4.7020001 -0.086999997 0.21799999 15
4.921 -0.082999997 0.30500001 15
5.1989999 -0.079000004 0.40400001 21
5.4920001 -0.075000003 0.514 34
5.8070002 -0.07 0.63499999 15
0 6.1440001 0 0
0 0 0 0
0 0 0 0
0 0 0 255
4.507 -0.056000002 0.139 18
4.7010002 -0.050999999 0.21799999 15
4.927 -0.045000002 0.30599999 15
5.1830001 -0.039000001 0.403 36
5.473 -0.033 0.51200002 27
5.8070002 -0.026000001 0.63499999 16
4.507 -0.021 0.139 18
4.6960001 -0.015 0.21799999 15
4.9180002 -0.0070000002 0.30500001 16
5.1830001 0 0.403 35
5.4770002 0.0080000004 0.51200002 16
5.8010001 0.017999999 0.634 15
4.4910002 0.013 0.138 17
4.6900001 0.021 0.21699999 16
4.914 0.029999999 0.30500001 17
5.1760001 0.039999999 0.40200001 34
5.4770002 0.050999999 0.51200002 15
5.7909999 0.063000001 0.63300002 16
4.4910002 0.048 0.138 16
4.6869998 0.057999998 0.21699999 15
4.9050002 0.068000004 0.30399999 18
5.1680002 0.079999998 0.40099999 33
5.467 0.093000002 0.51099998 14
5.7820001 0.108 0.63099998 16
4.48 0.082999997 0.138 17
4.6859999 0.093999997 0.21699999 16
4.9130001 0.106 0.30399999 14
5.1570001 0.12 0.40000001 18
5.4699998 0.13600001 0.51099998 15
5.7810001 0.153 0.63099998 16
4.4879999 0.118 0.138 16
4.6849999 0.131 0.21699999 16
4.901 0.14399999 0.303 14
5.165 0.161 0.40099999 15
5.461 0.17900001 0.50999999 14
5.7779999 0.198 0.63099998 15
4.4780002 0.153 0.13699999 19
4.6799998 0.168 0.21600001 16
4.9000001 0.183 0.303 14
5.164 0.20100001 0.40000001 15
5.4549999 0.221 0.509 16
5.763 0.243 0.62900001 17
4.4770002 0.189 0.13699999 16
4.6700001 0.205 0.215 15
4.8889999 0.222 0.30199999 15
5.1490002 0.242 0.39899999 16
5.4499998 0.26499999 0.50800002 15
5.77 0.28999999 0.62900001 16
4.4699998 0.22499999 0.13600001 16
4.6669998 0.242 0.215 14
4.8909998 0.26100001 0.30199999 15
5.1490002 0.28299999 0.39899999 15
5.4460001 0.308 0.50700003 14
5.763 0.33500001 0.62800002 17
4.4759998 0.26100001 0.13600001 18
4.6550002 0.27900001 0.214 16
4.875 0.30000001 0.30000001 17
5.1409998 0.324 0.398 15
5.4369998 0.35100001 0.50599998 17
5.7540002 0.38100001 0.62699997 16
4.4699998 0.29699999 0.13600001 17
4.6589999 0.317 0.214 18
4.8779998 0.33899999 0.30000001 17
5.1409998 0.366 0.39700001 15
5.434 0.39500001 0.505 15
5.7449999 0.42699999 0.625 16
4.46 0.333 0.13500001 17
4.6599998 0.354 0.213 18
4.8800001 0.37900001 0.30000001 16
5.1279998 0.40599999 0.396 15
5.4299998 0.43799999 0.505 16
5.7420001 0.47299999 0.625 15
4.4549999 0.36899999 0.134 17
4.6490002 0.39199999 0.212 17
4.8660002 0.417 0.29800001 15
5.1279998 0.44800001 0.39500001 16
5.4239998 0.48199999 0.50300002 16
5.737 0.51899999 0.62400001 15
4.447 0.405 0.133 17
4.6479998 0.43000001 0.212 17
4.862 0.45699999 0.29800001 14
5.1199999 0.48899999 0.39399999 16
5.4190001 0.52600002 0.50199997 15
5.7259998 0.565 0.62199998 16
4.4460001 0.44100001 0.133 19
4.6479998 0.46799999 0.211 17
4.8540001 0.49599999 0.296 17
5.118 0.53100002 0.39300001 16
5.4070001 0.56999999 0.50099999 17
5.7259998 0.61199999 0.62099999 16
4.4380002 0.47799999 0.132 18
4.6350002 0.50599998 0.20999999 17
4.8540001 0.537 0.296 17
5.1079998 0.57200003 0.39199999 16
5.402 0.61400002 0.49900001 17
5.7150002 0.65899998 0.61900002 18
0 6.1440001 0 0
0 0 0 0
0 0 0 0
0 0 0 255
4.4369998 0.51499999 0.131 20
4.6370001 0.54400003 0.20900001 17
0 0 0 50
5.1030002 0.61400002 0.38999999 16
5.3990002 0.65799999 0.498 17
5.7119999 0.70599997 0.61799997 18
4.427 0.551 0.12899999 18
4.631 0.58200002 0.208 20
4.842 0.616 0.29300001 18
5.098 0.65600002 0.389 15
5.3909998 0.70200002 0.49700001 16
5.6950002 0.75099999 0.61500001 17
4.4239998 0.58700001 0.12800001 18
4.618 0.62 0.206 17
4.8309999 0.65499997 0.292 17
5.0939999 0.69800001 0.38800001 16
5.381 0.74599999 0.495 16
5.6820002 0.79699999 0.61299998 16
4.421 0.62400001 0.127 18
4.618 0.65899998 0.205 19
4.8309999 0.69599998 0.28999999 17
5.085 0.74000001 0.38600001 16
5.375 0.79100001 0.493 16
5.678 0.84399998 0.61199999 16
4.415 0.66100001 0.126 16
4.6090002 0.69700003 0.204 18
4.8140001 0.73500001 0.28799999 16
5.0710001 0.78100002 0.384 17
5.369 0.83499998 0.49200001 16
5.6729999 0.89200002 0.61000001 17
4.4029999 0.69700003 0.124 18
4.6069999 0.736 0.20200001 20
4.8099999 0.77499998 0.287 16
5.0710001 0.824 0.38299999 15
5.3600001 0.87900001 0.49000001 17
5.6690001 0.93900001 0.60799998 16
4.401 0.73500001 0.123 18
4.592 0.773 0.2 18
4.8070002 0.815 0.28600001 18
5.0570002 0.86500001 0.38 16
5.3540001 0.92400002 0.48800001 17
5.6609998 0.986 0.60600001 17
4.395 0.77200001 0.121 19
4.586 0.81099999 0.199 20
4.8010001 0.85600001 0.28400001 18
5.046 0.90700001 0.37799999 17
0 0 0 50
5.6500001 1.0319999 0.60399997 18
4.3909998 0.80900002 0.12 20
4.5830002 0.85000002 0.197 20
4.796 0.89600003 0.28200001 19
5.0440001 0.94999999 0.377 17
5.3319998 1.012 0.48300001 16
5.6389999 1.079 0.60100001 18
4.382 0.84600002 0.118 19
4.5710001 0.88800001 0.19499999 18
4.7820001 0.935 0.28 21
5.0320001 0.991 0.37400001 17
5.3260002 1.057 0.48100001 16
5.6350002 1.127 0.59899998 18
4.375 0.88300002 0.116 19
4.5609999 0.926 0.193 18
4.7810001 0.977 0.278 19
5.0250001 1.033 0.37200001 17
5.3130002 1.101 0.47799999 16
5.6240001 1.174 0.597 16
4.3660002 0.92000002 0.114 19
4.5510001 0.96399999 0.191 17
4.7680001 1.016 0.27500001 18
5.0159998 1.076 0.37 18
5.3119998 1.147 0.477 17
5.6160002 1.222 0.59399998 15
4.3509998 0.95499998 0.111 20
4.5430002 1.003 0.18799999 19
4.7589998 1.056 0.273 17
5.0100002 1.119 0.368 17
5.2950001 1.1900001 0.47299999 18
5.6160002 1.271 0.59299999 17
4.3509998 0.99400002 0.109 19
0 0 0 50
4.7470002 1.096 0.271 18
4.9980001 1.161 0.36500001 18
5.2859998 1.235 0.47099999 17
5.5949998 1.316 0.58899999 19
4.3309999 1.028 0.107 18
4.5219998 1.079 0.184 19
4.7389998 1.137 0.26800001 19
4.993 1.204 0.36300001 16
5.2779999 1.28 0.46799999 16
5.5830002 1.363 0.58600003 16
4.3270001 1.066 0.105 18
4.5190001 1.119 0.18099999 18
4.7270002 1.176 0.26499999 18
4.9790001 1.245 0.36000001 15
5.2639999 1.323 0.465 16
5.5689998 1.409 0.583 16
0 6.1440001 0 0
0 0 0 0
0 0 0 0
0 0 0 255
4.323 1.104 0.102 19
4.506 1.156 0.17900001 16
4.7129998 1.215 0.26300001 19
4.967 1.2869999 0.35699999 18
5.2509999 1.368 0.46200001 15
5.559 1.456 0.579 17
4.2989998 1.138 0.1 20
4.5009999 1.196 0.176 19
4.7080002 1.256 0.25999999 18
4.96 1.33 0.354 18
5.2470002 1.414 0.46000001 14
5.546 1.5039999 0.57599998 17
4.2989998 1.177 0.097000003 20
4.4959998 1.2359999 0.17399999 19
4.6939998 1.296 0.257 17
4.9450002 1.3710001 0.35100001 18
5.2360001 1.459 0.456 16
5.539 1.552 0.57300001 16
4.2940001 1.215 0.093999997 19
4.4770002 1.271 0.171 19
4.691 1.3380001 0.25400001 21
4.9330001 1.413 0.34799999 16
5.223 1.503 0.45300001 14
5.5219998 1.597 0.56999999 16
4.2820001 1.251 0.092 18
4.4640002 1.309 0.168 18
4.6760001 1.376 0.25099999 18
4.927 1.456 0.345 16
5.2069998 1.546 0.44999999 15
5.5139999 1.645 0.56599998 16
4.2729998 1.288 0.089000002 20
4.4489999 1.346 0.164 17
4.671 1.418 0.249 19
4.914 1.497 0.34200001 15
5.198 1.591 0.44600001 15
5.4959998 1.6900001 0.56199998 16
4.2610002 1.324 0.086000003 19
4.448 1.387 0.162 18
4.6560001 1.456 0.245 20
4.9029999 1.54 0.338 16
5.1869998 1.635 0.44299999 16
5.4910002 1.74 0.56 15
4.2449999 1.359 0.082999997 20
4.4320002 1.423 0.15899999 18
4.6399999 1.495 0.242 18
4.8899999 1.581 0.33500001 14
5.1750002 1.6799999 0.44 16
5.4770002 1.786 0.55599999 15
4.2319999 1.395 0.079999998 19
4.4299998 1.464 0.156 21
4.632 1.536 0.23899999 18
4.8800001 1.624 0.33199999 18
5.1550002 1.722 0.43599999 19
5.4699998 1.836 0.55299997 16
4.2270002 1.434 0.077 22
4.4089999 1.499 0.152 21
4.6209998 1.576 0.235 22
4.869 1.6670001 0.329 17
5.1500001 1.77 0.433 18
5.4510002 1.881 0.54900002 18
4.2140002 1.47 0.074000001 22
4.3990002 1.538 0.149 21
4.6090002 1.6160001 0.23199999 19
4.8520002 1.707 0.32499999 19
5.138 1.814 0.42899999 17
5.4419999 1.9299999 0.54500002 16
4.2020001 1.507 0.071000002 20
4.3860002 1.576 0.146 21
4.598 1.6569999 0.229 18
4.8379998 1.749 0.32100001 19
5.1230001 1.858 0.42500001 18
5.4200001 1.974 0.54100001 19
4.1869998 1.5420001 0.067000002 21
4.3720002 1.613 0.142 21
4.5830002 1.6950001 0.22499999 19
4.8270001 1.791 0.31799999 18
5.1059999 1.901 0.421 18
5.414 2.0239999 0.53799999 18
4.184 1.582 0.064000003 21
4.3670001 1.654 0.139 23
4.5700002 1.735 0.222 19
0 0 0 50
5.0949998 1.946 0.41800001 18
5.4029999 2.0710001 0.53399998 17
4.1739998 1.618 0.061000001 22
4.3520002 1.6900001 0.13600001 20
4.5580001 1.775 0.219 19
4.8070002 1.877 0.31099999 17
5.086 1.992 0.41499999 17
5.3860002 2.1170001 0.52999997 17
4.1599998 1.654 0.057999998 24
4.3460002 1.7309999 0.133 21
4.5489998 1.816 0.215 21
4.7870002 1.916 0.30700001 18
5.0710001 2.0350001 0.41100001 16
5.368 2.1619999 0.52600002 16
0 6.1440001 0 0
0 0 0 0
0 0 0 0
0 0 0 255
4.1469998 1.6900001 0.054000001 22
4.3319998 1.768 0.12899999 18
4.5339999 1.854 0.212 19
4.777 1.9579999 0.30399999 18
5.0549998 2.0780001 0.40700001 16
5.3559999 2.2090001 0.52200001 16
4.1339998 1.725 0.050999999 23
4.3169999 1.804 0.126 18
4.5159998 1.891 0.208 20
4.7600002 1.998 0.30000001 17
5.046 2.1229999 0.40400001 15
5.3449998 2.257 0.51899999 16
4.1300001 1.7640001 0.048 22
4.3010001 1.84 0.122 19
4.5139999 1.934 0.205 21
4.7509999 2.04 0.29699999 19
5.0339999 2.168 0.40000001 16
5.3400002 2.3069999 0.51599997 16
4.1170001 1.8 0.045000002 22
4.2909999 1.878 0.119 18
4.493 1.97 0.20100001 22
4.7449999 2.085 0.29300001 17
5.0219998 2.2130001 0.39700001 15
5.3249998 2.3529999 0.51200002 15
4.0999999 1.834 0.041000001 19
4.2810001 1.9170001 0.116 18
4.4829998 2.01 0.198 19
4.7329998 2.1270001 0.28999999 17
5.0079999 2.256 0.39300001 15
5.3119998 2.4000001 0.509 15
4.0879998 1.869 0.037999999 23
4.2680001 1.954 0.113 17
4.4699998 2.049 0.19499999 19
4.717 2.1670001 0.287 17
4.9959998 2.3010001 0.38999999 15
5.3010001 2.4489999 0.505 16
4.079 1.9069999 0.035 19
4.2589998 1.993 0.109 19
4.4640002 2.092 0.192 18
4.7069998 2.21 0.28299999 16
4.98 2.3429999 0.38600001 16
5.2820001 2.493 0.50099999 15
4.0640001 1.942 0.032000002 18
4.2389998 2.027 0.106 17
4.447 2.1289999 0.18799999 20
4.6890001 2.2490001 0.28 17
4.9689999 2.3889999 0.38299999 15
5.2659998 2.5380001 0.498 15
4.0560002 1.979 0.028000001 17
4.2340002 2.0669999 0.103 16
4.434 2.168 0.185 23
4.678 2.2909999 0.27700001 20
4.9629998 2.4360001 0.38 15
5.2659998 2.592 0.49599999 13
4.0359998 2.0109999 0.025 18
4.2199998 2.1040001 0.1 18
4.428 2.21 0.182 19
4.6659999 2.332 0.273 18
4.948 2.4790001 0.377 15
5.244 2.6340001 0.49200001 13
4.0300002 2.049 0.022 18
4.2080002 2.141 0.097000003 19
4.4229999 2.253 0.17900001 19
4.664 2.3789999 0.271 16
4.9419999 2.5250001 0.37400001 17
5.2379999 2.684 0.48899999 18
4.0229998 2.0869999 0.018999999 22
4.2059999 2.1830001 0.093999997 20
4.4120002 2.2920001 0.176 20
4.6599998 2.424 0.26899999 17
4.9229999 2.566 0.37099999 16
5.224 2.73 0.486 16
4.0110002 2.122 0.016000001 25
4.1950002 2.22 0.090999998 21
4.3990002 2.3299999 0.17299999 18
4.6399999 2.4619999 0.26499999 17
4.9200001 2.615 0.36899999 17
5.2140002 2.7780001 0.484 17
4 2.1570001 0.014 22
4.1830001 2.257 0.088 21
4.3860002 2.368 0.171 18
4.6329999 2.5050001 0.26199999 17
4.9089999 2.6589999 0.366 17
5.2069998 2.8269999 0.48100001 18
3.994 2.1960001 0.011 22
4.171 2.293 0.085000001 20
4.381 2.411 0.168 19
4.6230001 2.5469999 0.25999999 17
4.9029999 2.7060001 0.36399999 17
5.184 2.868 0.47799999 16
3.98 2.23 0.0080000004 21
4.1690001 2.335 0.082999997 19
4.3769999 2.454 0.16599999 20
4.6170001 2.5910001 0.25799999 17
4.895 2.7520001 0.361 17
5.178 2.9170001 0.47600001 17
0 6.1440001 0 0
0 0 0 0
0 0 0 0
0 0 0 255
3.9649999 2.2620001 0.0060000001 19
4.164 2.3759999 0.079999998 16
4.3600001 2.4890001 0.163 19
4.6100001 2.635 0.25600001 16
4.8790002 2.793 0.359 17
0 0 0 0
3.9619999 2.302 0.003 22
4.1479998 2.4089999 0.078000002 19
4.3530002 2.529 0.161 18
4.5960002 2.674 0.25299999 16
4.8730001 2.839 0.35699999 16
5.171 3.02 0.47299999 14
3.948 2.3340001 0.001 18
4.1370001 2.4449999 0.075999998 18
4.342 2.5680001 0.15899999 18
4.5840001 2.714 0.25099999 16
4.8759999 2.8900001 0.35600001 18
5.1700001 3.072 0.47299999 14
3.9430001 2.372 -0.001 18
4.1259999 2.4809999 0.074000001 18
4.3390002 2.6110001 0.15700001 18
4.5780001 2.757 0.249 16
4.855 2.928 0.35299999 17
5.158 3.1170001 0.47099999 14
3.9360001 2.408 -0.003 21
4.1220002 2.5209999 0.071999997 18
4.3330002 2.651 0.155 19
4.5770001 2.803 0.248 16
4.8540001 2.977 0.35299999 16
5.1560001 3.1689999 0.47 14
3.9260001 2.4419999 -0.0049999999 20
4.1149998 2.559 0.07 18
4.3239999 2.6900001 0.153 16
4.5630002 2.8410001 0.24600001 16
4.8449998 3.0209999 0.35100001 17
5.1490002 3.217 0.46900001 14
3.925 2.4820001 -0.0070000002 18
4.105 2.595 0.068000004 16
4.3119998 2.7260001 0.15099999 17
4.5489998 2.878 0.244 15
4.822 3.056 0.34900001 15
5.1420002 3.2639999 0.46799999 14
3.9170001 2.516 -0.0080000004 17
4.1020002 2.6340001 0.067000002 17
4.3099999 2.7679999 0.15000001 17
4.5510001 2.9260001 0.244 17
4.8460002 3.1199999 0.34999999 14
5.1430001 3.3169999 0.46799999 14
3.9170001 2.556 -0.0099999998 18
4.0999999 2.674 0.064999998 15
4.303 2.8069999 0.149 15
0 0 0 50
4.836 3.161 0.34900001 14
5.1329999 3.362 0.46799999 14
3.8959999 2.5810001 -0.011 16
4.0929999 2.711 0.064000003 15
4.2969999 2.846 0.148 16
4.5419998 3.0109999 0.242 16
4.8299999 3.2060001 0.34900001 13
5.1399999 3.4189999 0.46900001 13
3.892 2.618 -0.013 19
4.0869999 2.7479999 0.063000001 15
4.283 2.8800001 0.147 15
4.5339999 3.05 0.241 17
4.8340001 3.256 0.34900001 14
5.1300001 3.4619999 0.46799999 14
3.8900001 2.6559999 -0.014 18
4.0809999 2.7839999 0.061999999 15
4.2909999 2.927 0.147 16
4.5310001 3.0929999 0.241 16
4.823 3.2969999 0.34900001 14
5.1259999 3.51 0.46900001 14
3.895 2.697 -0.015 17
4.0819998 2.825 0.061000001 15
4.2859998 2.9660001 0.146 16
4.5300002 3.1370001 0.241 16
4.8309999 3.349 0.34999999 14
5.1240001 3.559 0.47 15
3.882 2.7260001 -0.015 20
4.0780001 2.8610001 0.061000001 19
4.2789998 3.0020001 0.146 19
4.5250001 3.1760001 0.241 17
4.8179998 3.3859999 0.34999999 16
5.1220002 3.6070001 0.47099999 15
3.8740001 2.756 -0.016000001 18
4.0760002 2.898 0.061000001 16
4.2719998 3.0380001 0.146 17
4.539 3.2290001 0.243 16
4.8210001 3.434 0.35100001 15
5.119 3.6530001 0.472 15
3.8770001 2.7950001 -0.017000001 18
4.0669999 2.9300001 0.059999999 16
4.2729998 3.0780001 0.146 18
4.5370002 3.27 0.243 16
4.8260002 3.483 0.352 16
5.1170001 3.7 0.47400001 15
0 6.1440001 0 0
0 0 0 0
0 0 0 0
0 0 0 255
3.869 2.825 -0.017000001 20
4.0689998 2.9690001 0.059999999 16
4.2740002 3.118 0.147 20
4.526 3.303 0.243 16
4.8280001 3.5280001 0.354 15
5.1199999 3.7479999 0.47600001 14
3.8710001 2.8610001 -0.017000001 16
4.072 3.007 0.061000001 17
4.2709999 3.154 0.147 19
4.5289998 3.346 0.244 16
4.8280001 3.5710001 0.35499999 15
5.1209998 3.7950001 0.47799999 14
3.8640001 2.8900001 -0.017000001 17
4.066 3.039 0.061000001 17
4.2620001 3.1849999 0.148 16
4.5310001 3.3870001 0.24600001 16
4.8309999 3.6159999 0.35800001 16
5.1259999 3.8440001 0.48100001 15
3.875 2.9319999 -0.016000001 16
4.0689998 3.076 0.061999999 17
4.2690001 3.227 0.149 19
4.533 3.428 0.24699999 15
4.8330002 3.6600001 0.36000001 16
5.1339998 3.895 0.484 15
3.875 2.9649999 -0.016000001 16
4.066 3.108 0.063000001 17
4.2649999 3.2590001 0.15000001 18
4.5300002 3.4630001 0.249 15
4.835 3.701 0.36199999 15
5.138 3.9400001 0.48699999 15
3.865 2.9879999 -0.015 16
4.0679998 3.142 0.064000003 16
4.2659998 3.2950001 0.152 18
4.5300002 3.5 0.25099999 15
4.8390002 3.744 0.36500001 15
5.1350002 3.98 0.49000001 14
3.8729999 3.0250001 -0.014 15
4.0640001 3.171 0.064999998 17
4.2919998 3.348 0.154 15
4.5409999 3.5439999 0.25400001 14
4.8400002 3.7820001 0.36700001 15
5.145 4.0279999 0.49399999 15
3.878 3.0580001 -0.014 15
4.0669999 3.204 0.066 16
4.2989998 3.3859999 0.156 16
4.5450001 3.582 0.25600001 15
4.848 3.825 0.37099999 15
5.1560001 4.0770001 0.498 14
3.8759999 3.0840001 -0.012 15
4.0710001 3.237 0.068000004 15
4.303 3.421 0.15800001 15
4.5570002 3.6240001 0.259 14
4.849 3.8610001 0.37400001 15
5.158 4.1149998 0.50199997 13
3.878 3.1129999 -0.011 15
4.0770001 3.27 0.07 16
4.3060002 3.4530001 0.16 16
4.5609999 3.6589999 0.26199999 14
4.8559999 3.901 0.377 15
5.1630001 4.1560001 0.50599998 12
3.8789999 3.1400001 -0.0089999996 15
4.0689998 3.29 0.071000002 16
4.302 3.4779999 0.162 15
4.566 3.6930001 0.26499999 15
4.8579998 3.9349999 0.38100001 14
5.177 4.2020001 0.51200002 13
3.891 3.1730001 -0.0080000004 16
4.073 3.319 0.072999999 16
4.3119998 3.513 0.16500001 14
4.572 3.727 0.26800001 14
4.8699999 3.9749999 0.38499999 15
5.1869998 4.243 0.51700002 13
3.8829999 3.1900001 -0.0060000001 15
0 0 0 0
4.316 3.5409999 0.168 16
4.5749998 3.756 0.271 14
4.8730001 4.006 0.389 15
5.2049999 4.2880001 0.52200001 17
3.898 3.223 -0.0040000002 16
4.0970001 3.3840001 0.079000004 14
4.3189998 3.5669999 0.171 15
4.5809999 3.786 0.27500001 15
4.8839998 4.0419998 0.39300001 14
5.198 4.3119998 0.52600002 24
3.888 3.234 -0.0020000001 15
4.1040001 3.411 0.081 14
4.329 3.5969999 0.17399999 15
4.5900002 3.8169999 0.27900001 14
4.8860002 4.0689998 0.39700001 14
5.2329998 4.3670001 0.53399998 31
3.891 3.2550001 0 17
4.1059999 3.431 0.083999999 15
4.3299999 3.618 0.177 16
4.5960002 3.8429999 0.28200001 16
4.8990002 4.1020002 0.40200001 15
5.237 4.395 0.53899997 45
0 6.1440001 0 0
0 0 0 0
0 0 0 0
0 0 0 255
3.901 3.279 0.0020000001 17
4.118 3.4590001 0.086999997 16
4.3410001 3.645 0.18099999 16
4.6069999 3.872 0.287 14
4.9109998 4.1329999 0.40700001 14
5.23 4.4109998 0.542 53
3.9059999 3.2969999 0.0049999999 16
4.119 3.474 0.089000002 16
4.3429999 3.664 0.184 15
4.6129999 3.8940001 0.28999999 15
4.9169998 4.1570001 0.41100001 13
5.2350001 4.4359999 0.54699999 43
3.9119999 3.316 0.0070000002 17
4.1240001 3.493 0.093000002 15
4.355 3.688 0.18700001 15
4.6160002 3.9119999 0.294 15
4.9330001 4.1869998 0.417 14
5.244 4.461 0.55299997 36
3.914 3.3280001 0.0099999998 17
4.1329999 3.5109999 0.096000001 15
4.362 3.7049999 0.191 16
4.6360002 3.941 0.29899999 16
4.941 4.2069998 0.42199999 13
5.2379999 4.4710002 0.55599999 30
3.9289999 3.3499999 0.013 16
4.1420002 3.5280001 0.098999999 16
4.3759999 3.7279999 0.19499999 15
4.6409998 3.957 0.303 15
4.9559999 4.2319999 0.42699999 14
5.2690001 4.5100002 0.56400001 24
3.928 3.355 0.015 16
4.1409998 3.5350001 0.102 15
4.3759999 3.7360001 0.198 15
4.651 3.974 0.30700001 15
4.9710002 4.2540002 0.43200001 15
5.2880001 4.5359998 0.57099998 18
3.9430001 3.3729999 0.017999999 14
4.1469998 3.5450001 0.105 15
4.3889999 3.7520001 0.20200001 15
4.6609998 3.9879999 0.31099999 14
4.9780002 4.2670002 0.43700001 15
5.3049998 4.559 0.57700002 14
3.948 3.3800001 0.021 14
4.1570001 3.556 0.108 15
4.3959999 3.7620001 0.206 14
4.6690001 3.9990001 0.315 14
4.9850001 4.277 0.44100001 14
5.3309999 4.586 0.58399999 13
3.9530001 3.385 0.024 14
4.1729999 3.5710001 0.112 15
4.4120002 3.776 0.20900001 14
4.6820002 4.0120001 0.31999999 14
4.9970002 4.289 0.44600001 14
5.3470001 4.6009998 0.58899999 13
3.964 3.3929999 0.027000001 15
4.1760001 3.572 0.115 16
4.4169998 3.78 0.213 15
4.6960001 4.0229998 0.324 13
5.0149999 4.3039999 0.45100001 14
5.3610001 4.612 0.59500003 14
3.974 3.3989999 0.029999999 16
4.1799998 3.573 0.118 15
4.4219999 3.78 0.21600001 14
4.7010002 4.0229998 0.32800001 13
5.0190001 4.303 0.45500001 15
5.3790002 4.6240001 0.60000002 14
3.971 3.391 0.033 17
4.1849999 3.572 0.121 14
4.4330001 3.7839999 0.22 15
4.71 4.0250001 0.331 15
5.027 4.3039999 0.45899999 16
5.3920002 4.6290002 0.60600001 15
3.9719999 3.3840001 0.035 17
4.1960001 3.5739999 0.124 15
4.4400001 3.783 0.223 15
4.7150002 4.0209999 0.33500001 14
5.0440001 4.3099999 0.463 15
5.4029999 4.6290002 0.61000001 15
3.9949999 3.3940001 0.037999999 17
4.204 3.5710001 0.127 15
4.4489999 3.78 0.226 15
4.724 4.0180001 0.338 15
5.0539999 4.3070002 0.46700001 15
5.4190001 4.631 0.61500001 17
4.0009999 3.388 0.041000001 16
4.2080002 3.562 0.12899999 15
4.46 3.777 0.229 15
4.7329998 4.013 0.34099999 14
5.0669999 4.3039999 0.47099999 15
5.4289999 4.6240001 0.61900002 15
4.0170002 3.388 0.043000001 15
4.23 3.5669999 0.132 16
4.4679999 3.7690001 0.23199999 15
4.7490001 4.0110002 0.345 14
5.0739999 4.2930002 0.47400001 16
5.434 4.6110001 0.62199998 15
0 6.1440001 0 0
0 0 0 0
0 0 0 0
0 0 0 255
4.0110002 3.369 0.045000002 17
4.2259998 3.5480001 0.13500001 15
4.4720001 3.756 0.234 15
4.7490001 3.993 0.347 15
5.0840001 4.283 0.477 15
5.4429998 4.599 0.625 15
4.0170002 3.3570001 0.048 17
4.2350001 3.5380001 0.13699999 15
4.4809999 3.744 0.237 14
4.7610002 3.983 0.34999999 15
5.0879998 4.2659998 0.47999999 13
5.448 4.5799999 0.62699997 13
4.0339999 3.352 0.050000001 14
4.237 3.52 0.139 14
4.4860001 3.7279999 0.23899999 14
4.7709999 3.97 0.352 15
5.0970001 4.2490001 0.48199999 13
5.4559999 4.5609999 0.63 13
4.0279999 3.3269999 0.050999999 14
4.2490001 3.5079999 0.141 15
4.4970002 3.714 0.241 14
4.7810001 3.954 0.35499999 14
5.105 4.23 0.484 13
5.4629998 4.54 0.63200003 13
4.0469999 3.319 0.054000001 14
4.2610002 3.494 0.14300001 15
4.5029998 3.694 0.243 15
4.7810001 3.927 0.35600001 15
5.1110001 4.2069998 0.486 14
5.4580002 4.5050001 0.63200003 15
4.039 3.289 0.055 15
4.2600002 3.4679999 0.14399999 14
4.5110002 3.675 0.244 14
4.7909999 3.9070001 0.35699999 15
5.1199999 4.184 0.48699999 14
5.46 4.4749999 0.63300002 18
4.0419998 3.267 0.056000002 15
4.2639999 3.4449999 0.145 14
4.5110002 3.6470001 0.245 14
4.7930002 3.8789999 0.35800001 15
5.1240001 4.1560001 0.48800001 14
5.4549999 4.4359999 0.63200003 23
4.046 3.243 0.057 16
4.27 3.4219999 0.147 14
4.5159998 3.6210001 0.24600001 14
4.7989998 3.8529999 0.359 15
5.125 4.1230001 0.48800001 15
5.4530001 4.3990002 0.63200003 31
4.0560002 3.223 0.059 16
4.27 3.392 0.147 14
4.5159998 3.5899999 0.24699999 14
4.803 3.823 0.36000001 15
5.1290002 4.0900002 0.48899999 15
5.4569998 4.3639998 0.63200003 36
4.0599999 3.1960001 0.059 16
4.2820001 3.3710001 0.148 15
4.5170002 3.5580001 0.24699999 15
4.8049998 3.789 0.36000001 15
5.131 4.0539999 0.48800001 15
5.4590001 4.3249998 0.63099998 45
4.0570002 3.164 0.059999999 17
4.2839999 3.3399999 0.149 15
4.52 3.5250001 0.24699999 15
4.8049998 3.753 0.359 16
5.132 4.0159998 0.48699999 17
5.4809999 4.3010001 0.63200003 47
4.066 3.1389999 0.059999999 15
4.276 3.3 0.148 17
4.5209999 3.4909999 0.24699999 16
4.8060002 3.717 0.359 16
5.1279998 3.973 0.486 16
5.4910002 4.2659998 0.63200003 40
4.0679998 3.108 0.061000001 16
4.2719998 3.263 0.148 16
4.5219998 3.4560001 0.24600001 16
4.8109999 3.681 0.35800001 16
5.1290002 3.9319999 0.48500001 17
5.4970002 4.2249999 0.63 32
4.0700002 3.076 0.059999999 16
4.2750001 3.23 0.148 17
4.5229998 3.4189999 0.24600001 16
4.8130002 3.642 0.35699999 16
5.1290002 3.8889999 0.48300001 17
5.4990001 4.1799998 0.62800002 24
4.0710001 3.0420001 0.059999999 16
0 0 0 0
4.5240002 3.381 0.245 16
4.8080001 3.5969999 0.35499999 16
5.1290002 3.845 0.48100001 16
5.4759998 4.1149998 0.62300003 16
4.0770001 3.0109999 0.059999999 16
4.2740002 3.1559999 0.146 18
4.5310001 3.3469999 0.244 17
4.8130002 3.559 0.354 16
5.119 3.7920001 0.47799999 16
5.4689999 4.0619998 0.61900002 17
0 6.1440001 0 0
0 0 0 0
0 0 0 0
0 0 0 255
4.0749998 2.973 0.059 16
4.2779999 3.1210001 0.145 18
4.5219998 3.3 0.242 16
4.8060002 3.5109999 0.35100001 16
5.119 3.7460001 0.47499999 16
5.46 4.0050001 0.61500001 17
4.0739999 2.9360001 0.057999998 15
4.277 3.0810001 0.14399999 17
4.526 3.2609999 0.23999999 17
4.803 3.4649999 0.34900001 17
5.1199999 3.7 0.472 18
5.4549999 3.951 0.611 17
4.073 2.8970001 0.057 16
4.2649999 3.033 0.142 17
4.493 3.1960001 0.237 18
4.79 3.411 0.345 17
5.1160002 3.6489999 0.46900001 17
5.4489999 3.8959999 0.60699999 18
4.073 2.859 0.056000002 16
4.2659998 2.993 0.141 17
4.5029998 3.161 0.235 17
4.7839999 3.3610001 0.34200001 14
5.1090002 3.595 0.465 15
5.4349999 3.8340001 0.60100001 15
4.066 2.8150001 0.055 14
4.2680001 2.954 0.139 16
4.4990001 3.115 0.233 16
4.7779999 3.3110001 0.33899999 15
5.1020002 3.5409999 0.461 15
5.427 3.776 0.59600002 17
4.0570002 2.77 0.052999999 15
4.2659998 2.9119999 0.13699999 15
4.5009999 3.073 0.23 17
4.7789998 3.266 0.336 15
5.0999999 3.49 0.45699999 17
5.421 3.7179999 0.58999997 16
4.0580001 2.7320001 0.050999999 15
4.2670002 2.8710001 0.13500001 14
4.4949999 3.0239999 0.227 17
4.7670002 3.21 0.33199999 15
5.0929999 3.4349999 0.45199999 16
5.414 3.6589999 0.58499998 16
4.0619998 2.694 0.050000001 14
4.257 2.822 0.132 15
4.4819999 2.9719999 0.22400001 16
4.7610002 3.1589999 0.32800001 15
5.0809999 3.3770001 0.447 15
5.3920002 3.5899999 0.57700002 17
4.0580001 2.651 0.048 14
4.2550001 2.779 0.13 14
4.4710002 2.9200001 0.22 16
4.7399998 3.0969999 0.32300001 17
5.0739999 3.3210001 0.442 16
5.3839998 3.53 0.57099998 15
4.0469999 2.6029999 0.045000002 17
4.2550001 2.7360001 0.127 15
4.4749999 2.8770001 0.21699999 17
4.7329998 3.0450001 0.31900001 17
5.0609999 3.2609999 0.43599999 16
5.3720002 3.4679999 0.565 15
4.0479999 2.563 0.043000001 16
4.244 2.6860001 0.124 17
4.4640002 2.825 0.213 16
4.7350001 2.9979999 0.315 17
5.0500002 3.2019999 0.43099999 15
5.368 3.4089999 0.55900002 16
4.0469999 2.5220001 0.041000001 15
4.2420001 2.642 0.121 15
4.461 2.7780001 0.20999999 16
4.7199998 2.9400001 0.31 17
5.0469999 3.148 0.426 16
5.3530002 3.345 0.55199999 16
4.0320001 2.4719999 0.037999999 20
4.237 2.596 0.118 15
4.4520001 2.727 0.206 17
4.711 2.8870001 0.30500001 17
5.006 3.0710001 0.417 18
5.349 3.286 0.546 17
4.033 2.4319999 0.035999998 20
4.2270002 2.5469999 0.115 17
4.4439998 2.677 0.20200001 19
4.704 2.835 0.30000001 17
4.9959998 3.013 0.41100001 18
5.3249998 3.217 0.537 16
4.0250001 2.3859999 0.033 16
4.2210002 2.5 0.111 16
4.4380002 2.6289999 0.198 19
4.697 2.783 0.296 17
4.9860001 2.9560001 0.405 23
5.3099999 3.1530001 0.52999997 17
4.0089998 2.336 0.029999999 18
4.211 2.4519999 0.108 18
4.4310002 2.579 0.19400001 18
4.6849999 2.727 0.28999999 17
4.9770002 2.9000001 0.40000001 19
5.2989998 3.092 0.523 17
0 6.1440001 0 0
0 0 0 0
0 0 0 0
0 0 0 255
4.0079999 2.2950001 0.027000001 20
4.211 2.4089999 0.104 16
4.4190001 2.527 0.189 17
4.6700001 2.671 0.285 17
4.967 2.8429999 0.39300001 20
5.2420001 3.0039999 0.51099998 18
4.0100002 2.2550001 0.024 18
4.2049999 2.362 0.101 15
4.4089999 2.4760001 0.185 20
4.6620002 2.618 0.28 17
4.9460001 2.779 0.38699999 19
5.2480001 2.9530001 0.50599998 21
4.0029998 2.211 0.021 17
4.1950002 2.3139999 0.097000003 18
4.4089999 2.4300001 0.18099999 19
4.6479998 2.562 0.27399999 18
4.9330001 2.721 0.38 20
5.2290001 2.8870001 0.498 22
3.9990001 2.168 0.017999999 19
4.1900001 2.2679999 0.093999997 17
4.3959999 2.3789999 0.176 19
4.6420002 2.5120001 0.26899999 18
4.9120002 2.6589999 0.373 19
5.2129998 2.8239999 0.49000001 20
3.9949999 2.125 0.015 21
4.1820002 2.2219999 0.090000004 17
4.3839998 2.3280001 0.17200001 19
4.6290002 2.457 0.264 19
4.902 2.6029999 0.36700001 19
5.1989999 2.763 0.48300001 21
3.9890001 2.082 0.012 19
4.178 2.178 0.086000003 17
4.3790002 2.28 0.168 22
4.6149998 2.4030001 0.25799999 16
4.8930001 2.5480001 0.361 16
5.1820002 2.7 0.47499999 17
3.977 2.0350001 0.0089999996 14
4.164 2.128 0.082000002 15
4.369 2.23 0.163 17
4.5970001 2.346 0.25299999 18
4.8670001 2.484 0.354 18
5.165 2.638 0.46700001 17
3.983 1.998 0.0060000001 15
4.1599998 2.0840001 0.079000004 18
4.3629999 2.184 0.15899999 18
4.5929999 2.2980001 0.248 17
4.8569999 2.4300001 0.34799999 17
5.151 2.5780001 0.46000001 17
3.98 1.957 0.003 17
4.158 2.0409999 0.075000003 16
4.355 2.1359999 0.155 16
4.586 2.2479999 0.243 18
4.849 2.3770001 0.34200001 18
5.1279998 2.5150001 0.45100001 18
3.971 1.913 0 16
4.1500001 1.9960001 0.071000002 15
4.3369999 2.0840001 0.15000001 18
4.5689998 2.194 0.237 17
4.8340001 2.3210001 0.33500001 18
5.1079998 2.4530001 0.44400001 20
3.961 1.87 -0.003 17
4.1389999 1.95 0.068000004 16
4.329 2.0369999 0.145 18
4.5570002 2.142 0.23199999 17
4.8200002 2.266 0.329 20
5.1020002 2.398 0.43700001 18
3.9560001 1.8279999 -0.0060000001 19
4.1420002 1.911 0.064000003 14
4.3270001 1.993 0.141 18
4.5469999 2.092 0.227 18
4.8109999 2.2130001 0.32300001 18
5.0739999 2.335 0.42899999 20
3.96 1.791 -0.0089999996 17
4.1209998 1.86 0.059999999 16
4.323 1.948 0.13699999 19
4.5300002 2.04 0.222 18
4.7979999 2.1589999 0.317 20
5.0679998 2.2809999 0.42300001 18
3.9519999 1.749 -0.012 18
4.1240001 1.821 0.057 14
4.3130002 1.902 0.133 18
4.5159998 1.989 0.21600001 19
4.7880001 2.1070001 0.31200001 18
5.046 2.22 0.41499999 20
3.941 1.705 -0.015 18
4.118 1.778 0.052999999 16
4.3070002 1.857 0.12899999 17
4.5120001 1.943 0.212 19
4.7709999 2.053 0.30500001 20
5.0349998 2.1659999 0.40900001 22
3.9349999 1.665 -0.017999999 19
4.1170001 1.738 0.050000001 18
4.3010001 1.812 0.125 17
4.5009999 1.8940001 0.207 20
4.7600002 2.0009999 0.30000001 18
5.02 2.109 0.40200001 19
0 6.1440001 0 0
0 0 0 0
0 0 0 0
0 0 0 255
3.9200001 1.62 -0.021 17
4.1059999 1.693 0.046 20
4.2930002 1.767 0.121 19
4.4889998 1.845 0.20200001 20
4.7490001 1.949 0.294 19
5.0029998 2.053 0.39500001 22
3.927 1.586 -0.024 18
4.0999999 1.651 0.043000001 19
4.2839999 1.722 0.117 17
4.4860001 1.8 0.198 18
4.7389998 1.899 0.289 22
4.9920001 1.999 0.389 23
3.924 1.5470001 -0.027000001 19
4.0929999 1.609 0.039000001 19
4.2810001 1.679 0.113 18
4.4809999 1.755 0.193 16
4.7189999 1.846 0.28299999 19
4.9790001 1.946 0.38299999 23
3.911 1.5039999 -0.029999999 19
4.0819998 1.566 0.035999998 18
4.2729998 1.635 0.109 22
4.4679999 1.707 0.189 20
4.7129998 1.798 0.278 21
4.9660001 1.892 0.377 21
3.908 1.466 -0.032000002 18
4.079 1.526 0.033 18
4.2670002 1.592 0.105 20
4.4580002 1.66 0.184 20
4.7059999 1.75 0.273 20
4.9569998 1.841 0.37099999 22
3.9070001 1.429 -0.035 18
4.0770001 1.487 0.029999999 19
4.257 1.548 0.102 19
4.4590001 1.618 0.18099999 23
4.6929998 1.7 0.26800001 19
4.941 1.788 0.36500001 23
3.9059999 1.392 -0.037999999 20
4.072 1.447 0.027000001 19
4.2540002 1.507 0.097999997 18
4.448 1.572 0.176 24
4.6830001 1.652 0.26300001 20
4.927 1.7359999 0.359 25
3.9059999 1.3559999 -0.041000001 19
4.0640001 1.406 0.024 18
4.2459998 1.465 0.094999999 21
4.4400001 1.528 0.17299999 21
4.6669998 1.602 0.25799999 17
4.9169998 1.686 0.354 18
3.8929999 1.3150001 -0.043000001 16
4.0609999 1.368 0.021 16
4.2420001 1.424 0.092 16
4.4330001 1.484 0.169 19
4.6700001 1.5599999 0.255 19
4.9120002 1.637 0.34900001 17
3.891 1.279 -0.045000002 17
4.0560002 1.3279999 0.017999999 15
4.2379999 1.383 0.088 17
4.4310002 1.442 0.16500001 19
4.6609998 1.5140001 0.25 19
4.9039998 1.589 0.34400001 18
3.892 1.244 -0.048 16
4.0489998 1.289 0.015 17
4.2350001 1.3430001 0.085000001 18
4.4229999 1.399 0.162 18
4.6529999 1.4680001 0.24600001 21
4.8969998 1.541 0.33899999 20
3.8859999 1.206 -0.050000001 18
4.046 1.251 0.013 16
4.2280002 1.303 0.082000002 16
4.4159999 1.3559999 0.15800001 18
4.6440001 1.4220001 0.242 19
4.8839998 1.492 0.33399999 21
3.882 1.17 -0.052000001 19
4.0450001 1.214 0.0099999998 17
4.23 1.2640001 0.079999998 18
4.4060001 1.312 0.155 16
4.631 1.375 0.23800001 18
4.868 1.441 0.329 20
3.8740001 1.132 -0.054000001 17
4.0409999 1.176 0.0080000004 16
4.223 1.224 0.077 18
4.408 1.273 0.152 18
4.6269999 1.331 0.234 17
4.8740001 1.399 0.32600001 22
3.872 1.097 -0.056000002 18
4.0320001 1.137 0.0060000001 15
4.2129998 1.183 0.074000001 18
4.4039998 1.232 0.149 18
4.6149998 1.286 0.23100001 17
4.8600001 1.35 0.322 22
3.8770001 1.064 -0.057999998 20
4.026 1.1 0.003 15
4.2069998 1.1440001 0.071000002 16
4.4000001 1.191 0.146 18
4.6139998 1.245 0.228 20
4.855 1.3049999 0.31799999 21
0 6.1440001 0 0
0 0 0 0
0 0 0 0
0 0 0 255
3.8699999 1.028 -0.059999999 18
4.0310001 1.0650001 0.001 16
4.2049999 1.1059999 0.068999998 16
4.3940001 1.15 0.14300001 18
4.6149998 1.204 0.22499999 18
4.8429999 1.2589999 0.31400001 22
3.8659999 0.99299997 -0.061999999 17
4.0320001 1.03 0 18
4.2010002 1.068 0.067000002 16
4.395 1.112 0.141 18
4.6139998 1.1619999 0.222 21
4.835 1.2130001 0.31 20
3.868 0.95899999 -0.064000003 17
4.0219998 0.99199998 -0.0020000001 16
4.2049999 1.0319999 0.064999998 17
4.3850002 1.0700001 0.138 17
4.6059999 1.119 0.219 19
4.8260002 1.168 0.30700001 21
3.862 0.92400002 -0.064999998 18
4.0190001 0.95599997 -0.003 16
4.1960001 0.99299997 0.063000001 17
4.3779998 1.03 0.13500001 15
4.6069999 1.079 0.21600001 20
4.8309999 1.126 0.30399999 21
3.868 0.89200002 -0.067000002 16
4.02 0.921 -0.0049999999 16
4.198 0.95700002 0.061000001 16
4.3800001 0.99199998 0.133 18
