# .PCD v0.7 - Point Cloud Data file format
VERSION 0.7
FIELDS x y z intensity
SIZE 4 4 4 4
TYPE F F F F
COUNT 1 1 1 1
WIDTH 1590
HEIGHT 1
VIEWPOINT 0 0 0 1 0 0 0
POINTS 1590
DATA ascii
0 0 0 0
0 0 0 255
2.7160001 -1.416 -0.59100002 24
2.8039999 -1.449 -0.55699998 23
2.902 -1.488 -0.523 19
3.0009999 -1.527 -0.48500001 18
3.1140001 -1.573 -0.447 19
3.2249999 -1.618 -0.40599999 20
2.72 -1.393 -0.588 24
2.806 -1.425 -0.55400002 20
2.9089999 -1.465 -0.51999998 19
3.0090001 -1.503 -0.48300001 17
3.119 -1.5470001 -0.44400001 20
3.2320001 -1.592 -0.403 21
2.724 -1.37 -0.58499998 22
2.8150001 -1.403 -0.55199999 20
2.9089999 -1.438 -0.51700002 20
3.01 -1.476 -0.479 20
3.1199999 -1.5190001 -0.44100001 20
3.234 -1.564 -0.40000001 22
2.7290001 -1.347 -0.58200002 29
2.8199999 -1.3789999 -0.54900002 22
2.9159999 -1.414 -0.514 22
3.017 -1.452 -0.477 21
3.1240001 -1.492 -0.43799999 19
3.2449999 -1.54 -0.39700001 22
2.7390001 -1.326 -0.57999998 22
2.829 -1.357 -0.54699999 23
2.9260001 -1.392 -0.51200002 22
3.0179999 -1.424 -0.47299999 19
3.132 -1.4680001 -0.435 20
3.247 -1.511 -0.39399999 22
2.737 -1.299 -0.57599998 29
2.829 -1.331 -0.542 23
2.9260001 -1.365 -0.50800002 23
3.026 -1.4 -0.47099999 22
3.138 -1.442 -0.43200001 20
3.2490001 -1.483 -0.391 25
2.7390001 -1.274 -0.57200003 33
2.836 -1.308 -0.54000002 24
2.928 -1.339 -0.50400001 21
3.03 -1.375 -0.46799999 21
3.142 -1.415 -0.42899999 21
3.2509999 -1.454 -0.38699999 24
2.743 -1.25 -0.56800002 34
2.8369999 -1.2819999 -0.53600001 29
2.934 -1.314 -0.50099999 23
3.0350001 -1.348 -0.465 20
3.1440001 -1.387 -0.426 19
3.2590001 -1.428 -0.38499999 19
2.7520001 -1.228 -0.56599998 35
2.8440001 -1.258 -0.53299999 20
2.937 -1.288 -0.498 19
3.0420001 -1.324 -0.46200001 17
3.151 -1.3609999 -0.42300001 18
3.263 -1.4 -0.382 21
2.7479999 -1.201 -0.56099999 35
2.846 -1.232 -0.52999997 27
2.944 -1.2640001 -0.495 22
3.0420001 -1.295 -0.458 18
3.1570001 -1.334 -0.41999999 21
3.27 -1.372 -0.37900001 21
2.7509999 -1.176 -0.55800003 26
2.846 -1.205 -0.52600002 36
2.947 -1.238 -0.49200001 22
3.0450001 -1.268 -0.45500001 17
3.1619999 -1.307 -0.417 20
3.2739999 -1.344 -0.37599999 19
2.7579999 -1.152 -0.55500001 24
2.855 -1.182 -0.523 31
2.95 -1.211 -0.48899999 24
3.052 -1.243 -0.45199999 18
3.1659999 -1.28 -0.414 22
3.277 -1.3150001 -0.37200001 27
2.76 -1.127 -0.55199999 22
2.848 -1.152 -0.51800001 19
2.947 -1.182 -0.484 21
3.0510001 -1.214 -0.44800001 17
3.154 -1.2460001 -0.40900001 25
3.277 -1.285 -0.36899999 25
2.7590001 -1.101 -0.54799998 18
2.8540001 -1.128 -0.51599997 19
2.9449999 -1.154 -0.47999999 24
3.0469999 -1.1849999 -0.44400001 17
3.165 -1.222 -0.40700001 24
3.277 -1.256 -0.36500001 24
2.7720001 -1.08 -0.546 23
2.858 -1.103 -0.51300001 23
2.957 -1.132 -0.479 24
3.0580001 -1.161 -0.442 24
3.164 -1.192 -0.403 26
3.2920001 -1.2309999 -0.36399999 21
2.776 -1.0549999 -0.54299998 25
2.8640001 -1.079 -0.50999999 18
2.964 -1.107 -0.47600001 28
3.0680001 -1.137 -0.44 22
3.175 -1.1670001 -0.40099999 22
3.2920001 -1.202 -0.36000001 23
0 6.1440001 0 0
0 0 0 0
0 0 0 0
0 0 0 255
2.7869999 -1.033 -0.54100001 23
2.8740001 -1.056 -0.50800002 20
2.9660001 -1.081 -0.47299999 32
3.0769999 -1.112 -0.43799999 25
3.187 -1.143 -0.39899999 19
3.3010001 -1.175 -0.35800001 21
2.7909999 -1.0089999 -0.53899997 22
2.8740001 -1.029 -0.50400001 19
2.9630001 -1.052 -0.46900001 20
3.0829999 -1.086 -0.435 18
3.1889999 -1.115 -0.396 21
3.3110001 -1.149 -0.35600001 22
2.7920001 -0.98400003 -0.53500003 28
2.888 -1.008 -0.50300002 19
2.9879999 -1.034 -0.46900001 21
3.0880001 -1.0599999 -0.43200001 16
3.191 -1.087 -0.39300001 18
3.3110001 -1.12 -0.35299999 21
2.8 -0.96100003 -0.53299999 26
2.904 -0.98699999 -0.50300002 21
2.9949999 -1.0089999 -0.46700001 18
3.0940001 -1.034 -0.43000001 17
3.1960001 -1.0599999 -0.391 18
3.3169999 -1.0930001 -0.34999999 19
2.8150001 -0.94 -0.53299999 20
2.901 -0.95999998 -0.49900001 19
3 -0.98400003 -0.465 17
3.096 -1.007 -0.42699999 16
3.2019999 -1.034 -0.38800001 18
3.316 -1.062 -0.347 19
2.8210001 -0.91600001 -0.52999997 19
2.915 -0.93800002 -0.498 20
3.0050001 -0.958 -0.46200001 17
3.1059999 -0.98199999 -0.42500001 18
3.2090001 -1.007 -0.38600001 18
3.323 -1.035 -0.345 19
2.8280001 -0.89200002 -0.528 21
2.9130001 -0.91000003 -0.49399999 20
3.0120001 -0.93300003 -0.46000001 19
3.108 -0.95499998 -0.42199999 17
3.217 -0.98100001 -0.384 19
3.332 -1.0089999 -0.34299999 20
2.8299999 -0.86699998 -0.52600002 18
2.9230001 -0.88700002 -0.493 17
3.0120001 -0.90600002 -0.45699999 16
3.1140001 -0.92900002 -0.41999999 16
3.221 -0.95300001 -0.38100001 20
3.3310001 -0.97899997 -0.34 21
2.836 -0.84299999 -0.523 20
2.9230001 -0.861 -0.49000001 19
3.0179999 -0.88099998 -0.45500001 17
3.119 -0.903 -0.41800001 17
3.22 -0.92500001 -0.37799999 18
3.332 -0.94999999 -0.33700001 19
2.842 -0.81900001 -0.52100003 20
2.9289999 -0.83700001 -0.48800001 19
3.0239999 -0.85600001 -0.45300001 20
3.1159999 -0.875 -0.41499999 15
3.2219999 -0.89700001 -0.37599999 15
3.3380001 -0.92199999 -0.33500001 16
2.8469999 -0.79500002 -0.51899999 18
2.9289999 -0.81 -0.48500001 18
3.0239999 -0.829 -0.44999999 15
3.122 -0.84899998 -0.41299999 15
3.23 -0.87099999 -0.37400001 15
3.3410001 -0.89399999 -0.333 15
2.8510001 -0.77100003 -0.51700002 16
2.9319999 -0.78500003 -0.48300001 16
3.027 -0.80299997 -0.44800001 18
3.1240001 -0.82200003 -0.41100001 14
3.23 -0.84299999 -0.37200001 15
3.346 -0.86699998 -0.331 16
2.852 -0.745 -0.51499999 16
2.941 -0.76200002 -0.48199999 15
3.0339999 -0.77899998 -0.44600001 16
3.132 -0.79699999 -0.40900001 13
3.2360001 -0.81699997 -0.37 15
3.348 -0.83899999 -0.329 17
2.8559999 -0.72100002 -0.51300001 18
2.944 -0.73699999 -0.47999999 18
3.033 -0.75199997 -0.44400001 14
3.1289999 -0.76899999 -0.40700001 14
3.2390001 -0.78899997 -0.368 14
3.3559999 -0.81199998 -0.32699999 18
2.859 -0.69700003 -0.51099998 13
2.9419999 -0.70999998 -0.477 14
3.0369999 -0.72600001 -0.442 14
3.1329999 -0.74299997 -0.405 13
3.2420001 -0.76200002 -0.366 14
3.3510001 -0.78200001 -0.32499999 15
2.8610001 -0.67199999 -0.509 17
2.9489999 -0.68599999 -0.47600001 16
3.04 -0.69999999 -0.44 14
3.1400001 -0.71700001 -0.40400001 15
3.2449999 -0.73500001 -0.36500001 14
3.355 -0.75400001 -0.32300001 17
0 6.1440001 0 0
0 0 0 0
0 0 0 0
0 0 0 255
2.862 -0.64700001 -0.50700003 19
2.9489999 -0.66000003 -0.47400001 14
3.046 -0.67500001 -0.43900001 15
3.141 -0.69 -0.40200001 15
3.2509999 -0.70899999 -0.36300001 14
3.358 -0.72600001 -0.322 16
2.865 -0.62300003 -0.505 17
2.9530001 -0.63499999 -0.472 16
3.0469999 -0.64899999 -0.43700001 14
3.1429999 -0.66399997 -0.40000001 13
3.2490001 -0.68000001 -0.361 15
3.362 -0.69800001 -0.31999999 16
2.8699999 -0.59899998 -0.50400001 16
2.9530001 -0.61000001 -0.47 14
3.0480001 -0.62300003 -0.43599999 14
3.151 -0.639 -0.39899999 15
3.25 -0.653 -0.36000001 15
3.3599999 -0.67000002 -0.31799999 16
2.8670001 -0.57300001 -0.50199997 16
2.9579999 -0.58499998 -0.46900001 14
3.0510001 -0.59799999 -0.43399999 13
3.148 -0.611 -0.39700001 15
3.2509999 -0.62599999 -0.35800001 16
3.362 -0.64200002 -0.317 21
2.8710001 -0.54900002 -0.50099999 14
2.9590001 -0.56 -0.46799999 13
3.0480001 -0.57099998 -0.43200001 15
3.142 -0.583 -0.39500001 13
3.2520001 -0.59899998 -0.35699999 16
3.362 -0.61400002 -0.31600001 16
2.8699999 -0.52399999 -0.49900001 15
2.9579999 -0.53500003 -0.46599999 14
3.0550001 -0.54699999 -0.43200001 16
3.1470001 -0.55800003 -0.39399999 15
3.2550001 -0.57200003 -0.35600001 17
3.3610001 -0.58600003 -0.31400001 17
2.8740001 -0.5 -0.498 18
2.9560001 -0.509 -0.46399999 14
3.053 -0.52100003 -0.43000001 13
3.1459999 -0.53200001 -0.39300001 13
3.2550001 -0.54500002 -0.35499999 13
3.3629999 -0.55800003 -0.31299999 16
2.8699999 -0.47499999 -0.49599999 16
2.9619999 -0.48500001 -0.46399999 13
3.0550001 -0.49599999 -0.42899999 16
3.1459999 -0.505 -0.39199999 15
3.256 -0.51800001 -0.354 15
3.3670001 -0.53100002 -0.31299999 16
2.8729999 -0.45100001 -0.49599999 14
2.964 -0.461 -0.463 17
3.0539999 -0.47 -0.428 12
3.142 -0.479 -0.38999999 12
3.2539999 -0.491 -0.352 18
3.359 -0.50199997 -0.31099999 19
2.869 -0.42699999 -0.49399999 13
2.9630001 -0.43599999 -0.46200001 16
3.056 -0.44400001 -0.42699999 12
3.1429999 -0.45199999 -0.389 13
3.257 -0.46399999 -0.352 17
3.365 -0.47499999 -0.31099999 17
2.8789999 -0.40400001 -0.495 14
2.96 -0.41 -0.46000001 16
3.0550001 -0.419 -0.426 13
3.1530001 -0.428 -0.38999999 12
3.253 -0.43700001 -0.35100001 14
3.3670001 -0.44800001 -0.31 19
2.872 -0.37799999 -0.49200001 14
2.9649999 -0.38600001 -0.46000001 14
3.059 -0.39399999 -0.426 13
3.1459999 -0.40099999 -0.38800001 14
3.256 -0.41100001 -0.34999999 13
3.359 -0.419 -0.30899999 16
2.8710001 -0.354 -0.49200001 14
2.9660001 -0.361 -0.46000001 13
3.056 -0.368 -0.42500001 12
3.1440001 -0.375 -0.38699999 14
3.257 -0.384 -0.34999999 14
3.365 -0.39300001 -0.30899999 17
2.872 -0.33000001 -0.491 13
2.964 -0.33700001 -0.45899999 14
3.0550001 -0.34299999 -0.42399999 15
3.1440001 -0.34900001 -0.38699999 13
3.25 -0.35699999 -0.34900001 14
3.365 -0.366 -0.30899999 17
2.8729999 -0.30700001 -0.491 16
2.9619999 -0.31200001 -0.458 14
3.0550001 -0.31799999 -0.42399999 12
3.1429999 -0.32300001 -0.38600001 13
3.2550001 -0.331 -0.34900001 14
3.3610001 -0.338 -0.308 17
2.875 -0.28299999 -0.491 15
2.9630001 -0.28799999 -0.458 13
3.0569999 -0.29300001 -0.42399999 12
3.1429999 -0.29800001 -0.38600001 13
3.2520001 -0.30399999 -0.34900001 13
3.358 -0.31 -0.308 15
0 6.1440001 0 0
0 0 0 0
0 0 0 0
0 0 0 255
2.8710001 -0.259 -0.49000001 15
2.96 -0.26300001 -0.458 14
3.053 -0.26800001 -0.42300001 11
3.1370001 -0.27200001 -0.38499999 12
3.2550001 -0.278 -0.34900001 15
3.3559999 -0.28299999 -0.30700001 16
2.868 -0.235 -0.48899999 16
2.9560001 -0.23899999 -0.45699999 14
3.0510001 -0.243 -0.42300001 12
3.135 -0.24600001 -0.38499999 13
3.2490001 -0.252 -0.34799999 14
3.355 -0.257 -0.30700001 15
2.8710001 -0.212 -0.49000001 14
2.9619999 -0.215 -0.458 13
3.0469999 -0.21799999 -0.42300001 14
3.1329999 -0.221 -0.38499999 12
3.247 -0.226 -0.34799999 14
3.3529999 -0.23 -0.308 14
2.869 -0.18799999 -0.49000001 16
2.9530001 -0.191 -0.45699999 14
3.0439999 -0.193 -0.42199999 12
3.1300001 -0.19599999 -0.38499999 12
3.2420001 -0.2 -0.34799999 14
3.352 -0.20299999 -0.308 17
2.8640001 -0.16500001 -0.48899999 16
2.9549999 -0.167 -0.45699999 14
3.0380001 -0.169 -0.42199999 15
3.1300001 -0.171 -0.38499999 12
3.24 -0.17399999 -0.34799999 14
3.345 -0.177 -0.308 16
2.865 -0.142 -0.49000001 14
2.948 -0.14300001 -0.45699999 14
3.04 -0.14399999 -0.42300001 13
3.122 -0.146 -0.38499999 14
3.2349999 -0.148 -0.34799999 16
3.3429999 -0.15000001 -0.308 17
2.858 -0.118 -0.48899999 14
2.9560001 -0.119 -0.458 12
3.0420001 -0.12 -0.42300001 10
3.1240001 -0.121 -0.38600001 13
3.2309999 -0.122 -0.34900001 14
3.3410001 -0.124 -0.30899999 17
2.8559999 -0.094999999 -0.48899999 13
2.941 -0.094999999 -0.45699999 13
3.0320001 -0.096000001 -0.42300001 14
3.1210001 -0.096000001 -0.38600001 14
3.233 -0.097000003 -0.34900001 14
3.3369999 -0.097999997 -0.30899999 16
2.8529999 -0.071999997 -0.48899999 14
2.941 -0.071999997 -0.458 13
3.0309999 -0.071999997 -0.42300001 11
3.1199999 -0.071999997 -0.38699999 12
3.2260001 -0.071999997 -0.34900001 16
3.3380001 -0.071999997 -0.31 17
2.8540001 -0.050000001 -0.49000001 14
2.937 -0.048999999 -0.458 12
3.0220001 -0.048 -0.42300001 17
3.1129999 -0.046999998 -0.38699999 11
3.2219999 -0.046999998 -0.34999999 13
3.322 -0.046 -0.30899999 15
2.8499999 -0.027000001 -0.491 15
2.937 -0.026000001 -0.45899999 13
3.02 -0.024 -0.42399999 12
3.108 -0.023 -0.38699999 13
3.217 -0.022 -0.34999999 15
3.3210001 -0.02 -0.31 17
2.8369999 -0.0040000002 -0.48899999 15
2.934 -0.003 -0.45899999 13
3.013 -0.001 -0.42399999 13
3.102 0 -0.38800001 15
3.2130001 0.0020000001 -0.35100001 13
3.319 0.0040000002 -0.31099999 15
2.8340001 0.017000001 -0.49000001 15
2.9260001 0.018999999 -0.45899999 14
3.017 0.021 -0.426 13
3.1070001 0.024 -0.389 13
3.21 0.026000001 -0.352 13
3.3139999 0.028999999 -0.31200001 15
2.8329999 0.039000001 -0.491 15
2.924 0.041999999 -0.46000001 13
3.013 0.045000002 -0.426 11
3.095 0.046999998 -0.389 12
3.2090001 0.050999999 -0.35299999 12
3.313 0.054000001 -0.31299999 15
2.829 0.061000001 -0.49200001 17
2.9189999 0.064000003 -0.461 13
3.0109999 0.068000004 -0.42699999 14
3.099 0.071000002 -0.391 12
3.2 0.075000003 -0.35299999 14
3.309 0.079000004 -0.31400001 17
2.825 0.082999997 -0.49200001 15
2.9159999 0.086000003 -0.461 14
3.0039999 0.090000004 -0.428 16
3.0899999 0.093999997 -0.391 14
3.1949999 0.098999999 -0.354 15
3.2980001 0.104 -0.31400001 18
0 6.1440001 0 0
0 0 0 0
0 0 0 0
0 0 0 255
2.8280001 0.105 -0.49399999 22
2.911 0.109 -0.46200001 13
3 0.113 -0.42899999 14
3.0810001 0.117 -0.391 12
3.188 0.123 -0.35499999 13
3.2950001 0.12800001 -0.31600001 17
2.8150001 0.126 -0.493 15
2.904 0.131 -0.463 14
2.993 0.13600001 -0.42899999 14
3.0799999 0.141 -0.39300001 12
3.1830001 0.147 -0.35600001 14
3.293 0.153 -0.317 17
2.8110001 0.147 -0.495 15
2.9030001 0.153 -0.46399999 14
2.9909999 0.15800001 -0.43000001 12
3.076 0.164 -0.39399999 12
3.1760001 0.17 -0.35699999 12
3.2880001 0.177 -0.31799999 16
2.8080001 0.168 -0.49599999 16
2.901 0.175 -0.465 14
2.993 0.18099999 -0.43200001 14
3.0680001 0.186 -0.39500001 13
3.1700001 0.193 -0.35800001 14
3.2880001 0.20200001 -0.31999999 16
2.803 0.189 -0.49599999 14
2.892 0.19599999 -0.46599999 14
2.9820001 0.20299999 -0.43200001 12
3.0710001 0.20900001 -0.39700001 13
3.174 0.21699999 -0.36000001 14
3.2780001 0.22499999 -0.32100001 15
2.802 0.20999999 -0.498 15
2.8870001 0.21699999 -0.46599999 14
2.98 0.22400001 -0.43399999 12
3.0650001 0.23100001 -0.398 13
3.1589999 0.23899999 -0.36000001 14
3.267 0.248 -0.32100001 21
2.7980001 0.23100001 -0.49900001 17
2.8840001 0.23800001 -0.46799999 14
2.9719999 0.24600001 -0.435 13
3.0569999 0.25299999 -0.398 11
3.1600001 0.26199999 -0.36199999 13
3.2709999 0.27200001 -0.324 18
2.799 0.252 -0.50099999 18
2.8770001 0.259 -0.46900001 12
2.967 0.26699999 -0.43599999 11
3.0550001 0.27500001 -0.40000001 13
3.151 0.28400001 -0.36300001 13
3.26 0.294 -0.324 15
2.789 0.271 -0.50099999 15
2.8759999 0.28 -0.47 11
2.9649999 0.289 -0.43700001 14
3.049 0.29699999 -0.40099999 13
3.1489999 0.30700001 -0.36399999 13
3.253 0.317 -0.32600001 15
2.783 0.29100001 -0.50199997 14
2.8699999 0.30000001 -0.47099999 12
2.96 0.30899999 -0.43799999 12
3.0450001 0.31799999 -0.40200001 14
3.1459999 0.329 -0.366 13
3.25 0.34 -0.32699999 14
2.7780001 0.31099999 -0.50300002 16
2.868 0.32100001 -0.47299999 12
2.9579999 0.331 -0.44 12
3.043 0.34 -0.40400001 14
3.1370001 0.34999999 -0.36700001 15
3.247 0.36300001 -0.329 15
2.776 0.331 -0.505 17
2.8629999 0.34099999 -0.47400001 14
2.951 0.35100001 -0.44100001 14
3.0369999 0.361 -0.405 17
3.131 0.37200001 -0.368 14
3.244 0.38600001 -0.33000001 15
2.773 0.35100001 -0.50599998 16
2.8599999 0.361 -0.47499999 13
2.947 0.37200001 -0.442 14
3.033 0.382 -0.40700001 14
3.1270001 0.39399999 -0.37 12
3.237 0.40700001 -0.33199999 15
2.7750001 0.37099999 -0.509 17
2.8570001 0.38100001 -0.477 13
2.9430001 0.39199999 -0.44400001 13
3.027 0.40200001 -0.40799999 13
3.1229999 0.41499999 -0.37099999 13
3.2320001 0.42899999 -0.333 15
2.7609999 0.38800001 -0.50800002 16
2.849 0.40000001 -0.47799999 14
2.937 0.41100001 -0.44499999 12
3.02 0.42199999 -0.40900001 12
3.1159999 0.435 -0.37200001 13
3.224 0.44999999 -0.33399999 14
2.7590001 0.40799999 -0.50999999 17
2.8469999 0.419 -0.479 13
2.937 0.43200001 -0.447 13
3.017 0.44299999 -0.41 13
3.1110001 0.456 -0.373 14
3.217 0.47099999 -0.33500001 16
0 6.1440001 0 0
0 0 0 0
0 0 0 0
0 0 0 255
2.7550001 0.426 -0.51099998 17
2.842 0.43799999 -0.47999999 14
2.928 0.44999999 -0.447 14
3.01 0.46200001 -0.41100001 15
3.1099999 0.477 -0.375 14
3.214 0.49200001 -0.33700001 16
2.757 0.44600001 -0.51300001 19
2.8329999 0.456 -0.48100001 14
2.9200001 0.46900001 -0.44800001 13
3.0039999 0.48199999 -0.412 13
3.095 0.495 -0.375 14
3.1930001 0.50999999 -0.336 16
2.7490001 0.463 -0.514 16
2.8280001 0.47499999 -0.48199999 13
2.9170001 0.48899999 -0.449 14
2.997 0.50099999 -0.41299999 13
3.0940001 0.51599997 -0.377 15
3.2019999 0.53299999 -0.33899999 18
2.7390001 0.47999999 -0.514 17
2.829 0.49399999 -0.484 13
2.911 0.50700003 -0.44999999 14
2.9909999 0.51999998 -0.414 14
3.0929999 0.537 -0.37900001 16
3.1960001 0.55299997 -0.34 18
2.7420001 0.49900001 -0.51599997 16
2.822 0.51200002 -0.484 14
2.904 0.52499998 -0.45100001 17
2.99 0.53899997 -0.41600001 15
3.0869999 0.55599999 -0.38 15
3.1760001 0.57099998 -0.34 16
2.7379999 0.51700002 -0.51700002 16
2.8150001 0.52899998 -0.48500001 14
2.8970001 0.54299998 -0.45199999 15
2.983 0.55800003 -0.417 14
3.0780001 0.574 -0.38 15
3.1760001 0.59100002 -0.34200001 16
2.733 0.53299999 -0.51800001 17
2.812 0.54699999 -0.486 14
2.898 0.56199998 -0.45300001 13
2.9760001 0.57499999 -0.417 13
3.079 0.59399998 -0.382 15
3.1760001 0.611 -0.34299999 17
2.7260001 0.55000001 -0.51800001 16
2.8039999 0.56300002 -0.48699999 13
2.8929999 0.579 -0.45500001 15
2.9749999 0.59399998 -0.419 13
3.0650001 0.61000001 -0.382 12
3.177 0.63099998 -0.345 18
2.7260001 0.56699997 -0.51999998 18
2.8069999 0.58200002 -0.48899999 14
2.8859999 0.59600002 -0.45500001 15
2.971 0.61199999 -0.41999999 14
3.0669999 0.63 -0.384 16
3.1659999 0.64899999 -0.345 15
2.7179999 0.583 -0.51999998 16
2.8010001 0.59799999 -0.48899999 14
2.8859999 0.61400002 -0.456 15
2.967 0.62900001 -0.421 16
3.0610001 0.64700001 -0.384 13
3.1659999 0.66799998 -0.34599999 15
2.714 0.59799999 -0.52100003 16
2.8 0.61500001 -0.491 14
2.885 0.63099998 -0.458 14
2.964 0.64600003 -0.421 16
3.056 0.66500002 -0.38499999 13
3.164 0.68699998 -0.347 20
2.71 0.61400002 -0.52200001 18
2.793 0.63099998 -0.491 16
2.8740001 0.64600003 -0.45699999 15
2.964 0.66399997 -0.42300001 14
3.053 0.68199998 -0.38600001 15
3.1470001 0.70200002 -0.347 16
2.7049999 0.62900001 -0.52200001 16
2.79 0.64600003 -0.491 16
2.8770001 0.66399997 -0.45899999 16
2.9560001 0.68000001 -0.42300001 14
3.0480001 0.699 -0.38600001 15
3.155 0.722 -0.34900001 16
2.7049999 0.64499998 -0.523 20
2.7869999 0.662 -0.49200001 14
2.8729999 0.67900002 -0.45899999 15
2.954 0.69599998 -0.42399999 15
3.0469999 0.71600002 -0.38699999 15
3.1530001 0.73900002 -0.34900001 18
2.7 0.66000003 -0.523 18
2.7839999 0.67699999 -0.493 14
2.868 0.69499999 -0.46000001 14
2.947 0.71100003 -0.42300001 14
3.0420001 0.73199999 -0.38699999 16
3.1489999 0.75599998 -0.34999999 18
2.6989999 0.67500001 -0.52399999 17
2.783 0.69199997 -0.493 16
2.869 0.71100003 -0.461 13
2.9460001 0.727 -0.42399999 12
3.046 0.75 -0.38800001 16
3.1489999 0.773 -0.35100001 17
0 6.1440001 0 0
0 0 0 0
0 0 0 0
0 0 0 255
2.6949999 0.68800002 -0.52399999 19
2.7809999 0.70700002 -0.49399999 15
2.865 0.72500002 -0.461 13
2.9449999 0.74299997 -0.42500001 13
3.036 0.76300001 -0.38800001 14
3.1470001 0.78899997 -0.35100001 26
2.698 0.70300001 -0.52600002 18
2.773 0.72000003 -0.493 15
2.8629999 0.74000001 -0.461 16
2.9430001 0.75800002 -0.42500001 15
3.036 0.77899998 -0.38800001 16
3.1389999 0.80400002 -0.35100001 44
2.6919999 0.71600002 -0.52499998 17
2.777 0.73500001 -0.495 14
2.8599999 0.75400001 -0.461 14
2.938 0.77100003 -0.42500001 13
3.0369999 0.79500002 -0.389 16
3.138 0.81900001 -0.35100001 49
2.6889999 0.72899997 -0.52499998 18
2.7679999 0.74699998 -0.493 14
2.8559999 0.76700002 -0.461 16
2.938 0.78600001 -0.42500001 14
3.03 0.80800003 -0.38800001 16
3.1340001 0.833 -0.34999999 48
2.6830001 0.74000001 -0.52399999 20
2.7720001 0.76099998 -0.49399999 18
2.8499999 0.77899998 -0.46000001 16
2.937 0.80000001 -0.42500001 14
3.0320001 0.82300001 -0.389 18
3.132 0.84799999 -0.34999999 50
2.691 0.755 -0.52600002 19
2.7679999 0.773 -0.49399999 15
2.8529999 0.79400003 -0.461 16
2.9289999 0.81199998 -0.42399999 15
3.0350001 0.838 -0.389 38
3.132 0.86299998 -0.34999999 49
2.684 0.76599997 -0.52499998 17
2.7650001 0.78500003 -0.493 18
2.852 0.80599999 -0.461 16
2.9360001 0.82700002 -0.42500001 15
3.033 0.852 -0.389 45
3.1329999 0.87699997 -0.34999999 51
2.6889999 0.77899998 -0.52600002 19
2.766 0.79799998 -0.493 18
2.852 0.81900001 -0.46000001 13
2.9389999 0.84100002 -0.42500001 15
3.036 0.86500001 -0.389 47
3.1300001 0.88999999 -0.34900001 52
2.6830001 0.78899997 -0.52399999 19
2.767 0.81 -0.493 13
2.8510001 0.83099997 -0.46000001 14
2.9389999 0.85299999 -0.42500001 17
3.0380001 0.87900001 -0.38800001 48
3.1340001 0.90399998 -0.34900001 48
2.6819999 0.80000001 -0.52399999 17
2.7650001 0.82099998 -0.493 15
2.855 0.84299999 -0.46000001 16
2.937 0.86400002 -0.42399999 17
3.0350001 0.88999999 -0.38699999 48
3.131 0.91600001 -0.34799999 48
2.6819999 0.81 -0.523 16
2.7690001 0.83200002 -0.493 15
2.855 0.85500002 -0.45899999 14
2.9389999 0.87599999 -0.42300001 30
3.033 0.90100002 -0.38600001 48
3.138 0.93000001 -0.34799999 50
2.681 0.81999999 -0.523 16
2.7650001 0.84100002 -0.491 15
2.8540001 0.86500001 -0.458 14
2.9400001 0.88800001 -0.42300001 39
3.0320001 0.912 -0.38499999 47
3.1359999 0.94099998 -0.347 49
2.688 0.83200002 -0.523 19
2.767 0.852 -0.491 15
2.852 0.875 -0.45699999 16
2.944 0.89899999 -0.42199999 45
3.0369999 0.92400002 -0.38499999 46
3.1329999 0.95099998 -0.345 38
2.687 0.83999997 -0.52200001 22
2.7690001 0.86199999 -0.49000001 16
2.858 0.88599998 -0.45699999 14
2.9430001 0.90899998 -0.421 44
3.0369999 0.93400002 -0.38299999 45
3.135 0.96200001 -0.34400001 23
2.6849999 0.84799999 -0.51999998 17
2.773 0.87199998 -0.48899999 18
2.8610001 0.89600003 -0.456 15
2.9430001 0.91799998 -0.419 44
3.043 0.94599998 -0.38299999 46
3.148 0.97600001 -0.34400001 17
2.6919999 0.85900003 -0.51999998 15
2.7739999 0.88099998 -0.48800001 14
2.8610001 0.90399998 -0.454 19
2.95 0.92900002 -0.419 43
3.04 0.954 -0.38100001 46
3.1440001 0.98400003 -0.34200001 17
0 6.1440001 0 0
0 0 0 0
0 0 0 0
0 0 0 255
2.6889999 0.86500001 -0.51800001 18
2.779 0.88999999 -0.48699999 13
2.862 0.912 -0.45300001 34
2.95 0.93699998 -0.417 42
3.049 0.96499997 -0.38 45
3.145 0.99299997 -0.34 15
2.694 0.87400001 -0.51700002 16
2.777 0.89600003 -0.48500001 15
2.8570001 0.91799998 -0.44999999 49
2.95 0.94400001 -0.41499999 44
3.0550001 0.97500002 -0.37900001 45
3.151 1.003 -0.338 18
2.7 0.88200003 -0.51700002 17
2.786 0.90499997 -0.48500001 15
2.865 0.92699999 -0.44999999 49
2.9560001 0.95300001 -0.414 43
3.049 0.98000002 -0.37599999 40
3.1600001 1.013 -0.33700001 17
2.7019999 0.88800001 -0.51499999 16
2.789 0.912 -0.484 16
2.8699999 0.935 -0.44800001 47
2.961 0.96100003 -0.41299999 44
3.053 0.98699999 -0.37400001 26
3.1630001 1.02 -0.33500001 17
2.7030001 0.89300001 -0.51300001 17
2.7869999 0.917 -0.48100001 16
2.8699999 0.94 -0.44600001 51
2.9660001 0.96799999 -0.41100001 46
3.0569999 0.995 -0.37200001 20
3.1700001 1.028 -0.333 19
2.7090001 0.89999998 -0.51200002 17
2.789 0.92199999 -0.479 17
2.875 0.94700003 -0.44400001 50
2.967 0.97299999 -0.40799999 45
3.0669999 1.003 -0.37099999 17
3.1700001 1.034 -0.33000001 17
2.711 0.90499997 -0.50999999 15
2.796 0.92799997 -0.47799999 17
2.8759999 0.95099998 -0.442 49
2.97 0.97799999 -0.40599999 46
3.075 1.01 -0.36899999 16
3.175 1.04 -0.32800001 18
2.7149999 0.90899998 -0.50800002 16
2.799 0.93300003 -0.47499999 26
2.885 0.95700002 -0.44100001 48
2.9820001 0.986 -0.405 43
3.082 1.016 -0.36700001 16
3.1849999 1.0470001 -0.32600001 19
2.7219999 0.91399997 -0.50700003 18
2.8 0.93599999 -0.47299999 40
2.8870001 0.96100003 -0.43799999 47
2.9820001 0.98900002 -0.40200001 44
3.0840001 1.0190001 -0.36399999 15
3.1849999 1.05 -0.32300001 18
2.723 0.91600001 -0.50400001 17
2.8039999 0.93900001 -0.47099999 47
2.8929999 0.96499997 -0.43599999 45
2.9879999 0.99299997 -0.40000001 47
3.0899999 1.024 -0.36199999 15
3.1889999 1.054 -0.31999999 19
2.73 0.92000002 -0.50300002 20
2.8069999 0.94099998 -0.46799999 51
2.8929999 0.96600002 -0.433 44
2.997 0.99699998 -0.398 49
3.095 1.027 -0.359 14
3.1949999 1.057 -0.31799999 19
2.733 0.92199999 -0.5 19
2.8169999 0.94599998 -0.46700001 53
2.905 0.97100002 -0.43200001 46
3.0009999 1 -0.39500001 44
3.1029999 1.031 -0.35699999 14
3.21 1.063 -0.31600001 19
2.74 0.92400002 -0.498 19
2.8180001 0.94599998 -0.46399999 54
2.9130001 0.97399998 -0.43000001 45
3.003 1 -0.39199999 42
3.109 1.033 -0.354 15
3.2130001 1.0650001 -0.31299999 19
2.7449999 0.92500001 -0.49599999 20
2.8269999 0.94800001 -0.46200001 52
2.9170001 0.97500002 -0.42699999 45
3.0139999 1.003 -0.38999999 37
3.1170001 1.035 -0.35100001 15
3.221 1.067 -0.31 19
2.7479999 0.92500001 -0.493 19
2.8280001 0.94700003 -0.45899999 51
2.925 0.97600001 -0.42500001 45
3.016 1.003 -0.38699999 29
3.1240001 1.036 -0.34799999 14
3.227 1.067 -0.30700001 19
2.7579999 0.926 -0.491 19
2.839 0.949 -0.45699999 47
2.9260001 0.97399998 -0.421 44
3.023 1.003 -0.384 24
3.1329999 1.0369999 -0.34599999 15
3.24 1.069 -0.30399999 20
0 6.1440001 0 0
0 0 0 0
0 0 0 0
0 0 0 255
2.766 0.926 -0.48899999 18
2.8440001 0.94800001 -0.454 51
2.934 0.97399998 -0.419 49
3.0309999 1.003 -0.382 21
3.1359999 1.035 -0.34200001 16
3.2449999 1.068 -0.30000001 22
2.773 0.92500001 -0.48699999 19
2.8529999 0.94800001 -0.45199999 49
2.9430001 0.97399998 -0.41600001 44
3.0339999 1.001 -0.37799999 19
3.1500001 1.036 -0.34 15
3.257 1.068 -0.29800001 21
2.7809999 0.92400002 -0.48500001 20
2.862 0.94700003 -0.44999999 49
2.957 0.97500002 -0.41499999 47
3.043 0.99900001 -0.375 20
3.1559999 1.034 -0.33700001 16
3.2609999 1.0650001 -0.294 19
2.7809999 0.91900003 -0.48100001 19
2.869 0.94400001 -0.44800001 51
2.961 0.97100002 -0.41100001 46
3.056 0.99900001 -0.373 19
3.165 1.031 -0.33399999 14
3.273 1.064 -0.29100001 17
2.7920001 0.91799998 -0.47999999 20
2.8729999 0.94 -0.44400001 51
2.971 0.96899998 -0.40900001 44
3.0580001 0.99400002 -0.37 20
3.1730001 1.028 -0.331 16
3.277 1.0599999 -0.287 18
2.796 0.91299999 -0.47600001 19
2.885 0.93800002 -0.442 50
2.977 0.96399999 -0.40599999 46
3.0710001 0.99199998 -0.36700001 20
3.1800001 1.024 -0.32699999 15
3.289 1.057 -0.285 19
2.8039999 0.90899998 -0.47400001 17
2.891 0.93400002 -0.44 48
2.987 0.96100003 -0.40400001 46
3.0769999 0.98699999 -0.36399999 23
3.1860001 1.0190001 -0.324 14
3.2950001 1.051 -0.28099999 19
2.813 0.90499997 -0.472 16
2.8940001 0.92699999 -0.43599999 48
2.9890001 0.954 -0.40000001 45
3.0780001 0.97899997 -0.361 22
3.194 1.0140001 -0.32100001 16
3.306 1.046 -0.278 18
2.813 0.89700001 -0.46799999 19
2.905 0.92299998 -0.43399999 47
3.0020001 0.94999999 -0.398 46
3.089 0.97500002 -0.35800001 25
3.2 1.007 -0.31799999 15
3.313 1.04 -0.27399999 17
2.8280001 0.89399999 -0.46700001 20
2.908 0.91600001 -0.43099999 46
3.0079999 0.94300002 -0.39500001 45
3.0969999 0.96799999 -0.35499999 28
3.21 1.001 -0.315 15
3.3239999 1.034 -0.271 17
2.832 0.88599998 -0.46399999 18
2.918 0.90899998 -0.42899999 47
3.0120001 0.935 -0.39199999 45
3.1040001 0.96100003 -0.352 35
3.221 0.99400002 -0.31200001 17
3.335 1.027 -0.26800001 21
2.8410001 0.87900001 -0.46200001 17
2.9200001 0.89999998 -0.426 48
3.02 0.92799997 -0.389 47
3.1159999 0.954 -0.34999999 39
3.223 0.98400003 -0.30899999 16
3.345 1.0190001 -0.26499999 21
2.8499999 0.87199998 -0.46000001 19
2.9289999 0.89300001 -0.42300001 45
3.0309999 0.92000002 -0.38699999 51
3.1240001 0.94599998 -0.347 47
3.234 0.97600001 -0.30599999 15
3.3499999 1.0089999 -0.26199999 19
2.8540001 0.86299998 -0.45699999 18
2.934 0.884 -0.421 44
3.036 0.91000003 -0.384 49
3.1340001 0.93699998 -0.345 47
3.2379999 0.96499997 -0.30199999 15
3.3540001 0.99800003 -0.25799999 19
2.8570001 0.85299999 -0.454 18
2.9519999 0.87699997 -0.41999999 37
3.0420001 0.90100002 -0.38100001 51
3.141 0.92699999 -0.34200001 48
3.2509999 0.95700002 -0.30000001 16
3.3710001 0.99000001 -0.25600001 19
2.8670001 0.84399998 -0.45199999 18
2.9630001 0.86900002 -0.41800001 27
3.052 0.89200002 -0.37900001 47
3.1489999 0.917 -0.33899999 48
3.2609999 0.94700003 -0.29800001 15
3.3770001 0.97799999 -0.25299999 19
0 6.1440001 0 0
0 0 0 0
0 0 0 0
0 0 0 255
2.868 0.83200002 -0.449 17
2.9630001 0.85600001 -0.414 19
3.056 0.88 -0.37599999 47
3.158 0.90600002 -0.33700001 50
3.2690001 0.93599999 -0.29499999 15
3.381 0.96600002 -0.25 21
2.8789999 0.82300001 -0.44800001 17
2.9690001 0.84500003 -0.412 15
3.0639999 0.86799997 -0.37400001 51
3.1630001 0.89399999 -0.33399999 51
3.276 0.92299998 -0.292 16
3.3889999 0.95300001 -0.24699999 19
2.8829999 0.81 -0.44499999 16
2.9809999 0.83399999 -0.41 16
3.072 0.85699999 -0.37200001 48
3.1700001 0.88200003 -0.331 52
3.279 0.90899998 -0.289 16
3.401 0.94099998 -0.245 20
2.8889999 0.79900002 -0.44299999 19
2.9779999 0.81999999 -0.40700001 16
3.0780001 0.84399998 -0.37 51
3.177 0.86900002 -0.329 50
3.283 0.89499998 -0.28600001 22
3.405 0.926 -0.242 20
2.898 0.787 -0.442 18
2.99 0.80900002 -0.40599999 17
3.0810001 0.82999998 -0.36700001 49
3.181 0.85399997 -0.32699999 50
3.2880001 0.88 -0.28400001 23
3.415 0.912 -0.23899999 20
2.9070001 0.77499998 -0.44 18
2.994 0.79500002 -0.403 16
3.096 0.81900001 -0.366 40
3.188 0.83999997 -0.324 52
3.303 0.86799997 -0.28200001 18
3.4230001 0.898 -0.237 18
2.914 0.76200002 -0.43799999 20
2.9990001 0.78100002 -0.40099999 15
3.096 0.80299997 -0.36300001 23
3.1960001 0.82599998 -0.322 52
3.309 0.85299999 -0.28 20
3.427 0.88099998 -0.234 22
2.914 0.74599999 -0.43599999 19
3.007 0.76700002 -0.40000001 17
3.1010001 0.78799999 -0.361 17
3.2019999 0.81099999 -0.31999999 52
3.322 0.83899999 -0.278 18
3.4360001 0.86500001 -0.23199999 21
2.924 0.73299998 -0.43399999 16
3.0139999 0.75300002 -0.398 17
3.1059999 0.77200001 -0.359 18
3.2079999 0.79500002 -0.31799999 54
3.3239999 0.82099998 -0.27599999 17
3.4430001 0.84799999 -0.23 19
2.925 0.71700001 -0.43200001 16
3.016 0.736 -0.396 16
3.108 0.75599998 -0.35699999 17
3.211 0.778 -0.31600001 54
3.3310001 0.80400002 -0.27399999 23
3.448 0.83099997 -0.228 20
2.928 0.70099998 -0.43000001 18
3.017 0.71899998 -0.39300001 22
3.118 0.74000001 -0.35600001 17
3.22 0.76200002 -0.315 46
3.3340001 0.78600001 -0.27200001 17
3.454 0.81199998 -0.226 19
2.938 0.68599999 -0.42899999 17
3.026 0.704 -0.39199999 16
3.122 0.72299999 -0.354 17
3.2279999 0.745 -0.31299999 18
3.342 0.76899999 -0.27000001 19
3.461 0.79400003 -0.22400001 19
2.941 0.67000002 -0.428 18
3.0369999 0.68900001 -0.39199999 17
3.1259999 0.70599997 -0.352 18
3.2320001 0.727 -0.31099999 18
3.3510001 0.75099999 -0.26899999 19
3.4690001 0.77499998 -0.222 22
2.9400001 0.65200001 -0.42500001 23
3.0320001 0.66900003 -0.389 16
3.131 0.68800002 -0.34999999 20
3.2360001 0.708 -0.31 18
3.3559999 0.73199999 -0.26699999 20
3.4690001 0.755 -0.221 21
2.9449999 0.63499999 -0.42399999 21
3.0350001 0.65100002 -0.38699999 16
3.135 0.67000002 -0.34900001 17
3.2409999 0.69 -0.308 20
3.359 0.71200001 -0.266 18
3.4779999 0.73500001 -0.219 23
2.944 0.61699998 -0.42199999 26
3.0450001 0.63499999 -0.38699999 18
3.1359999 0.65100002 -0.347 19
3.244 0.67000002 -0.30700001 18
3.358 0.69099998 -0.264 23
3.4820001 0.71499997 -0.21799999 23
0 6.1440001 0 0
0 0 0 0
0 0 0 0
0 0 0 255
2.938 0.597 -0.41999999 29
3.039 0.61400002 -0.384 20
3.1329999 0.63 -0.345 26
3.2460001 0.64999998 -0.30500001 17
3.3629999 0.671 -0.26199999 23
3.4849999 0.69300002 -0.21600001 25
2.9400001 0.579 -0.41800001 25
3.04 0.59500003 -0.38299999 23
3.1359999 0.611 -0.34400001 25
3.244 0.62900001 -0.30399999 28
3.362 0.64999998 -0.26100001 56
3.4920001 0.67199999 -0.215 26
2.961 0.56400001 -0.41999999 30
3.0469999 0.57700002 -0.382 52
3.141 0.59200001 -0.34299999 28
3.2509999 0.61000001 -0.303 29
3.362 0.62800002 -0.259 26
3.4909999 0.64999998 -0.214 45
2.9690001 0.546 -0.419 22
3.062 0.56 -0.38299999 24
3.154 0.574 -0.34299999 19
3.2639999 0.59100002 -0.303 20
3.365 0.60699999 -0.25799999 37
3.493 0.62699997 -0.212 41
2.9649999 0.52600002 -0.41800001 19
3.063 0.54000002 -0.382 19
3.1619999 0.55400002 -0.34299999 19
3.2679999 0.56999999 -0.30199999 19
3.3829999 0.58700001 -0.25799999 25
3.4949999 0.60399997 -0.211 33
2.973 0.50700003 -0.417 18
3.069 0.51999998 -0.38100001 17
3.164 0.53299999 -0.34200001 16
3.267 0.54799998 -0.30000001 17
3.391 0.56599998 -0.25799999 21
3.5090001 0.583 -0.211 25
2.9809999 0.48800001 -0.417 19
3.072 0.5 -0.38 15
3.1689999 0.51300001 -0.34099999 17
3.283 0.528 -0.301 18
3.3970001 0.54400003 -0.257 20
3.5139999 0.56 -0.20999999 25
2.984 0.46799999 -0.417 18
3.079 0.47999999 -0.38 15
3.177 0.49200001 -0.34099999 17
3.2839999 0.50599998 -0.30000001 17
3.4000001 0.52100003 -0.25600001 19
3.5209999 0.537 -0.20999999 23
2.9890001 0.44800001 -0.41600001 17
3.0829999 0.45899999 -0.38 15
3.1789999 0.47099999 -0.34 16
3.286 0.484 -0.29899999 18
3.4070001 0.49900001 -0.25600001 19
3.5220001 0.51300001 -0.20900001 21
2.99 0.428 -0.41499999 18
3.0840001 0.43799999 -0.37900001 15
3.1819999 0.449 -0.34 15
3.2909999 0.461 -0.29899999 17
3.405 0.47499999 -0.255 22
3.53 0.48899999 -0.20900001 24
2.9949999 0.40700001 -0.41499999 17
3.092 0.417 -0.37900001 15
3.1849999 0.42699999 -0.33899999 15
3.2939999 0.43900001 -0.29800001 16
3.411 0.45199999 -0.255 20
3.529 0.46399999 -0.208 21
2.9979999 0.38699999 -0.41499999 14
3.0969999 0.396 -0.37900001 15
3.187 0.405 -0.33899999 15
3.2969999 0.41600001 -0.29800001 14
3.4159999 0.428 -0.25400001 18
3.533 0.44 -0.208 21
3.006 0.366 -0.41499999 18
3.0969999 0.37400001 -0.37799999 14
3.1919999 0.38299999 -0.33899999 13
3.2980001 0.39199999 -0.29699999 14
3.4130001 0.403 -0.25400001 19
3.5350001 0.41499999 -0.207 20
3.0050001 0.34400001 -0.41499999 16
3.1070001 0.35299999 -0.37900001 15
3.197 0.36000001 -0.33899999 13
3.303 0.36899999 -0.29699999 16
3.415 0.37900001 -0.25299999 17
3.539 0.38999999 -0.207 21
3.007 0.32300001 -0.414 15
3.105 0.331 -0.37799999 13
3.201 0.338 -0.338 13
3.303 0.34599999 -0.29699999 14
3.428 0.35600001 -0.25400001 17
3.5450001 0.36500001 -0.207 18
3.0079999 0.301 -0.414 15
3.102 0.308 -0.377 13
3.2049999 0.315 -0.338 13
3.3069999 0.322 -0.29699999 13
3.428 0.331 -0.25299999 19
3.543 0.33899999 -0.206 18
0 6.1440001 0 0
0 0 0 0
0 0 0 0
0 0 0 255
3.0090001 0.27900001 -0.41299999 16
3.105 0.285 -0.377 14
3.2079999 0.292 -0.338 13
3.313 0.29800001 -0.29699999 14
3.4330001 0.30599999 -0.25299999 19
3.556 0.31400001 -0.207 21
3.0090001 0.257 -0.41299999 17
3.105 0.26199999 -0.37599999 14
3.2119999 0.26800001 -0.338 12
3.3199999 0.27399999 -0.29699999 14
3.4289999 0.28 -0.25299999 16
3.5539999 0.287 -0.206 19
3.0139999 0.235 -0.41299999 15
3.1070001 0.23899999 -0.37599999 14
3.2149999 0.245 -0.338 12
3.3199999 0.249 -0.29699999 14
3.434 0.255 -0.25299999 16
3.556 0.26100001 -0.206 20
3.016 0.213 -0.41299999 14
3.1099999 0.21699999 -0.37599999 13
3.21 0.22 -0.33700001 13
3.323 0.22499999 -0.29699999 13
3.434 0.229 -0.252 16
3.5569999 0.234 -0.206 19
3.0179999 0.19 -0.41299999 14
3.1140001 0.193 -0.37599999 12
3.2079999 0.19599999 -0.33700001 15
3.325 0.2 -0.296 14
3.437 0.20299999 -0.252 16
3.559 0.207 -0.206 18
3.0190001 0.168 -0.41299999 14
3.1170001 0.17 -0.37599999 12
3.2130001 0.17200001 -0.33700001 13
3.3239999 0.17399999 -0.296 14
3.4419999 0.177 -0.25299999 17
3.5610001 0.18000001 -0.206 18
3.0190001 0.145 -0.41299999 14
3.1140001 0.146 -0.37599999 13
3.217 0.148 -0.33700001 11
3.3269999 0.149 -0.296 13
3.447 0.15099999 -0.25299999 16
3.566 0.153 -0.206 20
3.027 0.122 -0.41299999 14
3.115 0.122 -0.37599999 14
3.223 0.123 -0.338 12
3.326 0.123 -0.296 15
3.4460001 0.125 -0.252 18
3.5699999 0.125 -0.206 20
3.027 0.097999997 -0.41299999 17
3.1199999 0.097999997 -0.37599999 12
3.2179999 0.097999997 -0.33700001 12
3.326 0.097000003 -0.296 13
3.4560001 0.097999997 -0.25299999 16
3.5780001 0.097999997 -0.206 22
3.0280001 0.075000003 -0.41299999 14
3.1229999 0.074000001 -0.37599999 14
3.2260001 0.072999999 -0.33700001 12
3.3340001 0.071999997 -0.296 12
3.45 0.071000002 -0.252 13
3.572 0.07 -0.206 18
3.029 0.050999999 -0.41299999 16
3.1240001 0.050000001 -0.37599999 12
3.221 0.048 -0.33700001 12
3.326 0.046 -0.29499999 12
3.447 0.044 -0.252 13
3.572 0.041999999 -0.205 19
3.033 0.028000001 -0.41299999 18
3.1259999 0.025 -0.37599999 14
3.223 0.023 -0.33700001 13
3.3329999 0.02 -0.296 13
3.4579999 0.017000001 -0.252 16
3.573 0.013 -0.205 18
3.033 0.0040000002 -0.41299999 15
3.1300001 0.001 -0.37599999 16
3.2249999 -0.0020000001 -0.33700001 13
3.332 -0.0060000001 -0.29499999 13
3.4579999 -0.0099999998 -0.252 15
3.5780001 -0.014 -0.205 18
3.0320001 -0.018999999 -0.41299999 15
3.1370001 -0.023 -0.377 13
3.2260001 -0.028000001 -0.33700001 13
3.3380001 -0.032000002 -0.296 12
3.46 -0.037 -0.252 14
3.5810001 -0.043000001 -0.205 18
3.039 -0.043000001 -0.41299999 15
3.138 -0.048 -0.377 12
3.2309999 -0.052999999 -0.33700001 12
3.345 -0.059 -0.296 12
3.4649999 -0.064999998 -0.252 15
3.5810001 -0.071000002 -0.205 17
3.0369999 -0.068000004 -0.41299999 15
3.1389999 -0.072999999 -0.377 13
3.23 -0.079000004 -0.336 14
3.3380001 -0.086000003 -0.29499999 11
3.461 -0.093000002 -0.252 14
3.585 -0.1 -0.205 18
0 6.1440001 0 0
0 0 0 0
0 0 0 0
0 0 0 255
3.0409999 -0.092 -0.41299999 14
3.141 -0.098999999 -0.377 14
3.237 -0.105 -0.33700001 12
3.3499999 -0.113 -0.296 14
3.4630001 -0.121 -0.252 16
3.586 -0.12899999 -0.205 17
3.0439999 -0.117 -0.41299999 13
3.142 -0.124 -0.377 13
3.2420001 -0.132 -0.33700001 12
3.3410001 -0.14 -0.29499999 12
3.474 -0.15000001 -0.252 16
3.5910001 -0.15899999 -0.205 19
3.0469999 -0.141 -0.41299999 14
3.1440001 -0.149 -0.377 14
3.243 -0.15800001 -0.33700001 12
3.346 -0.167 -0.29499999 13
3.471 -0.178 -0.25099999 17
3.596 -0.18799999 -0.204 19
3.0480001 -0.16599999 -0.41299999 15
3.1429999 -0.175 -0.37599999 13
3.25 -0.185 -0.33700001 12
3.3469999 -0.19499999 -0.29499999 14
3.477 -0.207 -0.252 15
3.6010001 -0.21799999 -0.204 18
3.0510001 -0.191 -0.41299999 14
3.1470001 -0.20100001 -0.37599999 11
3.247 -0.211 -0.33700001 12
3.359 -0.223 -0.29499999 9
3.477 -0.235 -0.25099999 15
3.6040001 -0.248 -0.204 18
3.046 -0.21600001 -0.412 18
3.1489999 -0.227 -0.37599999 12
3.25 -0.23800001 -0.33700001 11
3.362 -0.25099999 -0.29499999 13
3.4820001 -0.264 -0.25099999 15
3.605 -0.278 -0.20299999 17
3.059 -0.242 -0.414 13
3.155 -0.25400001 -0.377 12
3.256 -0.266 -0.33700001 13
3.3610001 -0.278 -0.29499999 12
3.4849999 -0.29300001 -0.25099999 15
3.6029999 -0.308 -0.20299999 16
3.0599999 -0.26699999 -0.414 13
3.155 -0.27900001 -0.37599999 13
3.2539999 -0.292 -0.336 11
3.365 -0.30700001 -0.294 12
3.484 -0.322 -0.25 14
3.6140001 -0.33899999 -0.20299999 18
3.0580001 -0.29300001 -0.41299999 14
3.1570001 -0.30599999 -0.37599999 13
3.2590001 -0.31999999 -0.336 11
3.372 -0.336 -0.294 12
3.4849999 -0.35100001 -0.249 15
3.618 -0.37 -0.20200001 17
3.062 -0.31900001 -0.41299999 14
3.158 -0.33199999 -0.37599999 13
3.2609999 -0.34799999 -0.336 11
3.3699999 -0.36399999 -0.294 13
3.4949999 -0.382 -0.249 15
3.6199999 -0.40099999 -0.20200001 18
3.056 -0.34400001 -0.412 17
3.1630001 -0.36000001 -0.37599999 11
3.263 -0.37599999 -0.33500001 12
3.375 -0.39300001 -0.29300001 13
3.497 -0.412 -0.249 16
3.628 -0.433 -0.20100001 18
3.063 -0.37 -0.412 15
3.1630001 -0.38699999 -0.375 14
3.2679999 -0.40400001 -0.33500001 11
3.3840001 -0.42300001 -0.294 13
3.507 -0.44299999 -0.249 16
3.628 -0.46399999 -0.2 20
3.063 -0.39700001 -0.412 16
3.1689999 -0.41499999 -0.375 12
3.276 -0.433 -0.336 12
3.3859999 -0.45199999 -0.29300001 13
3.506 -0.47299999 -0.248 15
3.631 -0.495 -0.2 20
3.069 -0.42300001 -0.412 15
3.164 -0.44 -0.37400001 13
3.276 -0.46000001 -0.33500001 13
3.3859999 -0.47999999 -0.292 14
3.5109999 -0.50300002 -0.24699999 16
3.6340001 -0.52700001 -0.199 19
3.069 -0.449 -0.412 16
3.1689999 -0.46799999 -0.37400001 14
3.2739999 -0.48800001 -0.33399999 12
3.388 -0.50999999 -0.292 13
3.516 -0.53500003 -0.24699999 15
3.6489999 -0.56099999 -0.199 18
3.075 -0.477 -0.412 16
3.1730001 -0.49599999 -0.37400001 12
3.283 -0.51800001 -0.33399999 13
3.395 -0.54000002 -0.29100001 13
3.5239999 -0.56599998 -0.24600001 15
3.6489999 -0.59200001 -0.197 18
0 6.1440001 0 0
0 0 0 0
0 0 0 0
0 0 0 255
3.0780001 -0.50400001 -0.412 19
3.1730001 -0.523 -0.373 13
3.2880001 -0.54699999 -0.33399999 12
3.3970001 -0.56999999 -0.28999999 12
3.527 -0.597 -0.245 15
3.655 -0.625 -0.197 19
3.0780001 -0.52999997 -0.41100001 16
3.184 -0.55299997 -0.37400001 12
3.299 -0.57700002 -0.33399999 13
3.404 -0.60100001 -0.28999999 16
3.53 -0.62900001 -0.245 14
3.6619999 -0.65799999 -0.19599999 20
3.0829999 -0.55800003 -0.41100001 19
3.1849999 -0.58099997 -0.373 14
3.302 -0.60699999 -0.333 13
3.4100001 -0.63200003 -0.28999999 14
3.5309999 -0.66000003 -0.243 16
3.6689999 -0.69199997 -0.19499999 21
3.089 -0.58600003 -0.41100001 15
3.1919999 -0.61000001 -0.373 13
3.303 -0.63599998 -0.33199999 13
3.4089999 -0.662 -0.28799999 14
3.54 -0.69300002 -0.243 16
3.6689999 -0.72500002 -0.193 20
3.092 -0.61400002 -0.41100001 15
3.2 -0.63999999 -0.373 15
3.3039999 -0.66500002 -0.331 12
3.4200001 -0.69400001 -0.28799999 14
3.5469999 -0.72600001 -0.242 15
3.6800001 -0.75999999 -0.192 17
3.0999999 -0.64300001 -0.41100001 15
3.1949999 -0.667 -0.37099999 12
3.3080001 -0.69599998 -0.331 14
3.4260001 -0.72600001 -0.287 14
3.5550001 -0.759 -0.241 15
3.6860001 -0.79400003 -0.191 21
3.0999999 -0.67000002 -0.41 16
3.2079999 -0.69800001 -0.37200001 13
3.319 -0.72799999 -0.331 13
3.425 -0.75599998 -0.28600001 10
3.5580001 -0.792 -0.23999999 16
3.691 -0.82800001 -0.19 18
3.102 -0.699 -0.40900001 15
3.204 -0.72600001 -0.37 12
3.3169999 -0.75700003 -0.329 13
3.4289999 -0.78799999 -0.285 12
3.5680001 -0.82700002 -0.23899999 14
3.701 -0.86400002 -0.189 19
3.1059999 -0.72799999 -0.40900001 14
3.2060001 -0.75599998 -0.36899999 13
3.326 -0.78899997 -0.329 13
3.4349999 -0.82099998 -0.28400001 13
3.5699999 -0.85900003 -0.23800001 15
3.704 -0.89899999 -0.18700001 18
3.1140001 -0.75700003 -0.40900001 16
3.211 -0.78600001 -0.36899999 13
3.332 -0.82099998 -0.329 13
3.4460001 -0.85500002 -0.28400001 13
3.576 -0.89300001 -0.236 16
3.71 -0.93400002 -0.185 19
3.1140001 -0.78600001 -0.40799999 14
3.224 -0.81800002 -0.36899999 14
3.3399999 -0.85299999 -0.32800001 13
3.4519999 -0.88800001 -0.28299999 14
3.585 -0.92799997 -0.235 16
3.7219999 -0.97100002 -0.184 19
3.125 -0.81699997 -0.40799999 14
3.223 -0.847 -0.368 15
3.3410001 -0.884 -0.32699999 13
3.4549999 -0.92000002 -0.28099999 14
3.5929999 -0.96399999 -0.234 15
3.72 -1.005 -0.182 19
3.1210001 -0.84399998 -0.40700001 15
3.2349999 -0.88 -0.368 15
3.349 -0.917 -0.32600001 13
3.46 -0.95300001 -0.28 14
3.6040001 -1 -0.233 19
3.7320001 -1.043 -0.18099999 20
3.125 -0.87400001 -0.40599999 14
3.2360001 -0.91000003 -0.36700001 15
3.3499999 -0.94800001 -0.32499999 13
3.471 -0.98799998 -0.28 14
3.605 -1.034 -0.23100001 15
3.7449999 -1.082 -0.17900001 18
3.1270001 -0.90399998 -0.405 17
3.244 -0.94300002 -0.36700001 15
3.352 -0.98000002 -0.324 13
3.4749999 -1.022 -0.278 15
3.6140001 -1.0700001 -0.23 17
3.7479999 -1.118 -0.177 20
3.1340001 -0.935 -0.405 16
3.2490001 -0.97399998 -0.366 15
3.358 -1.013 -0.32300001 13
3.4820001 -1.057 -0.27700001 14
3.625 -1.107 -0.229 17
3.7609999 -1.1569999 -0.176 17
0 6.1440001 0 0
0 0 0 0
0 0 0 0
0 0 0 255
3.1440001 -0.96700001 -0.405 16
3.2520001 -1.006 -0.36500001 17
3.3640001 -1.046 -0.322 14
3.4890001 -1.092 -0.27599999 15
3.6270001 -1.142 -0.227 17
3.77 -1.196 -0.17399999 18
3.1429999 -0.99599999 -0.40400001 15
3.256 -1.0369999 -0.36399999 14
3.3729999 -1.081 -0.32100001 15
3.4949999 -1.127 -0.27399999 17
3.6340001 -1.179 -0.22499999 18
3.78 -1.235 -0.17200001 22
3.1530001 -1.029 -0.40400001 17
3.2650001 -1.071 -0.36399999 16
3.3800001 -1.115 -0.31999999 16
3.506 -1.164 -0.27399999 17
3.6440001 -1.217 -0.22400001 19
3.7869999 -1.273 -0.17 22
3.1530001 -1.059 -0.403 16
3.2679999 -1.103 -0.36300001 15
3.3859999 -1.149 -0.31900001 16
3.5139999 -1.2 -0.27200001 17
3.654 -1.255 -0.222 18
3.8 -1.314 -0.168 24
3.1570001 -1.09 -0.40200001 15
3.273 -1.136 -0.36199999 16
3.395 -1.184 -0.31799999 16
3.523 -1.2359999 -0.271 19
3.661 -1.2920001 -0.221 17
3.812 -1.355 -0.16599999 21
3.171 -1.125 -0.403 17
3.2809999 -1.17 -0.361 14
3.404 -1.22 -0.31799999 16
3.5350001 -1.274 -0.27000001 17
3.671 -1.331 -0.219 18
3.829 -1.398 -0.16500001 22
3.1760001 -1.1569999 -0.40200001 17
3.2850001 -1.202 -0.36000001 15
3.4089999 -1.2539999 -0.31600001 17
3.5380001 -1.309 -0.26899999 15
3.681 -1.37 -0.21699999 18
3.8239999 -1.433 -0.162 22
3.1849999 -1.191 -0.40200001 16
3.289 -1.2359999 -0.36000001 15
3.4130001 -1.289 -0.315 15
3.5450001 -1.346 -0.26699999 17
3.6930001 -1.411 -0.21600001 19
3.842 -1.478 -0.16 21
3.1889999 -1.224 -0.40200001 18
3.299 -1.272 -0.359 14
3.424 -1.326 -0.31400001 15
3.5569999 -1.385 -0.266 17
3.704 -1.452 -0.215 20
3.8499999 -1.518 -0.15800001 21
3.1930001 -1.256 -0.40099999 20
3.3050001 -1.306 -0.35800001 16
3.4360001 -1.365 -0.31400001 15
3.5569999 -1.421 -0.264 17
3.7090001 -1.49 -0.212 21
3.8610001 -1.561 -0.156 22
3.1889999 -1.286 -0.39899999 17
3.3080001 -1.339 -0.35699999 16
3.437 -1.398 -0.31200001 16
3.5610001 -1.457 -0.26300001 17
3.7130001 -1.528 -0.20999999 20
3.8659999 -1.601 -0.154 23
3.1989999 -1.321 -0.39899999 15
3.319 -1.376 -0.35699999 15
3.4449999 -1.436 -0.31099999 16
3.5710001 -1.4960001 -0.26100001 17
3.727 -1.5700001 -0.20900001 19
3.881 -1.646 -0.15099999 21
3.2049999 -1.355 -0.39899999 17
3.3239999 -1.411 -0.35600001 15
3.451 -1.472 -0.31 16
3.5780001 -1.535 -0.25999999 18
3.7360001 -1.612 -0.207 18
3.885 -1.686 -0.149 22
3.2079999 -1.387 -0.398 16
3.3269999 -1.4450001 -0.35499999 16
3.457 -1.5089999 -0.30899999 17
3.585 -1.573 -0.259 17
3.7449999 -1.652 -0.206 18
3.9000001 -1.7309999 -0.147 21
3.217 -1.423 -0.398 17
3.3369999 -1.482 -0.35499999 16
3.4619999 -1.545 -0.308 18
3.5969999 -1.614 -0.25799999 17
3.7520001 -1.693 -0.204 19
3.911 -1.776 -0.145 21
3.2179999 -1.456 -0.398 16
3.3380001 -1.516 -0.354 17
3.4679999 -1.582 -0.30700001 15
3.602 -1.652 -0.25600001 18
3.76 -1.734 -0.20200001 17
3.918 -1.818 -0.14300001 21
0 6.1440001 0 0
0 0 0 0
0 0 0 0
0 0 0 255
3.2219999 -1.489 -0.39700001 19
3.3469999 -1.554 -0.354 17
3.4790001 -1.622 -0.30700001 16
3.609 -1.691 -0.255 17
3.767 -1.775 -0.2 18
3.9330001 -1.865 -0.141 22
3.2279999 -1.524 -0.39700001 16
3.3510001 -1.589 -0.35299999 17
3.484 -1.659 -0.30599999 16
3.6129999 -1.729 -0.25400001 16
3.7780001 -1.818 -0.199 17
3.9449999 -1.91 -0.139 21
3.2320001 -1.559 -0.39700001 18
3.3610001 -1.627 -0.35299999 15
3.494 -1.699 -0.30500001 17
3.6210001 -1.77 -0.25299999 18
3.7850001 -1.86 -0.197 18
3.95 -1.9529999 -0.13699999 22
3.2360001 -1.5930001 -0.396 18
3.3599999 -1.66 -0.352 17
3.494 -1.734 -0.30399999 17
3.6240001 -1.808 -0.25099999 17
3.796 -1.904 -0.19599999 18
3.961 -1.998 -0.13500001 25
3.244 -1.63 -0.396 18
3.369 -1.699 -0.35100001 17
3.4979999 -1.771 -0.303 19
3.6340001 -1.85 -0.25 19
3.8050001 -1.948 -0.19400001 21
3.9690001 -2.043 -0.133 23
3.2490001 -1.665 -0.396 18
3.3829999 -1.74 -0.352 18
3.506 -1.812 -0.30199999 19
3.6400001 -1.8890001 -0.249 18
3.8080001 -1.988 -0.193 19
3.983 -2.0910001 -0.131 24
3.2490001 -1.698 -0.396 19
3.3840001 -1.775 -0.35100001 17
3.51 -1.849 -0.301 17
3.6400001 -1.927 -0.248 18
3.8150001 -2.03 -0.191 18
3.987 -2.1340001 -0.12899999 24
3.256 -1.734 -0.396 18
3.381 -1.808 -0.34999999 16
3.516 -1.888 -0.301 20
3.6570001 -1.973 -0.24699999 19
3.822 -2.073 -0.19 18
3.9909999 -2.177 -0.127 21
3.263 -1.771 -0.396 19
3.3870001 -1.845 -0.34999999 16
3.523 -1.927 -0.30000001 18
3.661 -2.0120001 -0.24600001 18
3.8299999 -2.1159999 -0.189 17
4.0050001 -2.2249999 -0.125 19
3.266 -1.806 -0.396 16
3.3900001 -1.881 -0.34999999 17
3.523 -1.9630001 -0.30000001 18
3.6700001 -2.0550001 -0.24600001 17
3.8410001 -2.161 -0.18799999 17
4.013 -2.2709999 -0.124 20
3.2690001 -1.841 -0.396 17
3.392 -1.916 -0.34900001 15
3.53 -2.0020001 -0.29899999 18
3.671 -2.092 -0.245 15
3.849 -2.2049999 -0.18700001 15
4.026 -2.3199999 -0.122 19
3.273 -1.876 -0.39700001 16
3.3989999 -1.955 -0.34999999 16
3.527 -2.036 -0.29800001 15
3.6760001 -2.1329999 -0.244 15
3.8559999 -2.2479999 -0.186 15
4.0279999 -2.362 -0.121 19
3.2739999 -1.91 -0.39700001 15
3.3959999 -1.988 -0.34900001 15
3.5320001 -2.075 -0.29800001 15
3.6900001 -2.178 -0.244 16
3.865 -2.2920001 -0.185 16
4.0419998 -2.411 -0.119 19
3.28 -1.947 -0.398 16
3.3989999 -2.0239999 -0.34900001 16
3.5380001 -2.1140001 -0.29800001 14
3.6960001 -2.2190001 -0.244 15
3.8710001 -2.335 -0.184 16
4.046 -2.4549999 -0.118 20
3.28 -1.979 -0.398 17
3.405 -2.0610001 -0.34999999 13
3.546 -2.155 -0.29899999 15
3.701 -2.2590001 -0.243 15
