# .PCD v0.7 - Point Cloud Data file format
VERSION 0.7
FIELDS x y z intensity
SIZE 4 4 4 4
TYPE F F F F
COUNT 1 1 1 1
WIDTH 1597
HEIGHT 1
VIEWPOINT 0 0 0 1 0 0 0
POINTS 1597
DATA ascii
2.4909999 1.0779999 -0.58899999 48
2.5650001 1.104 -0.56 50
2.638 1.13 -0.52999997 51
2.723 1.1619999 -0.49900001 16
2.809 1.1950001 -0.46599999 22
0 6.1440001 0 0
0 0 0 0
0 0 0 0
0 0 0 255
2.4230001 1.059 -0.616 17
2.494 1.0829999 -0.588 47
2.5669999 1.11 -0.55900002 49
2.6429999 1.137 -0.52899998 53
2.721 1.166 -0.49700001 16
2.809 1.2 -0.46399999 18
2.431 1.0650001 -0.616 18
2.5009999 1.09 -0.588 49
2.575 1.1160001 -0.55900002 50
2.6489999 1.143 -0.528 50
2.73 1.174 -0.49700001 17
2.8180001 1.2079999 -0.46399999 18
2.4289999 1.067 -0.61400002 16
2.5039999 1.094 -0.58700001 46
2.5769999 1.12 -0.55699998 50
2.651 1.147 -0.52600002 50
2.7320001 1.178 -0.495 18
2.8210001 1.212 -0.46200001 20
2.4319999 1.071 -0.61199999 15
2.5079999 1.098 -0.58499998 45
2.5810001 1.124 -0.55599999 50
2.651 1.149 -0.52399999 47
2.7360001 1.182 -0.493 17
2.823 1.216 -0.46000001 18
2.4349999 1.073 -0.611 17
2.5079999 1.099 -0.583 48
2.582 1.126 -0.55400002 49
2.6500001 1.151 -0.52200001 35
2.74 1.1849999 -0.491 16
2.8239999 1.2180001 -0.458 16
2.4419999 1.077 -0.61000001 17
2.5150001 1.103 -0.58200002 49
2.5829999 1.127 -0.55199999 51
2.6570001 1.154 -0.51999998 27
2.7460001 1.189 -0.49000001 16
2.8280001 1.22 -0.456 16
2.4460001 1.0779999 -0.60799998 20
2.5179999 1.104 -0.58099997 49
2.5899999 1.13 -0.551 51
2.6600001 1.156 -0.51800001 21
2.7490001 1.1900001 -0.48800001 15
2.8369999 1.224 -0.454 16
2.448 1.079 -0.60600001 24
2.523 1.1059999 -0.579 49
2.595 1.132 -0.54900002 53
2.6700001 1.159 -0.51700002 17
2.7539999 1.192 -0.486 16
2.842 1.226 -0.45199999 17
2.454 1.08 -0.60500002 29
2.527 1.1059999 -0.57700002 50
2.602 1.133 -0.54799998 51
2.6730001 1.159 -0.51499999 15
2.763 1.194 -0.484 17
2.8410001 1.224 -0.449 16
2.461 1.081 -0.60399997 33
2.5280001 1.105 -0.574 47
2.6059999 1.133 -0.54500002 54
2.6800001 1.16 -0.514 14
2.766 1.193 -0.48199999 18
2.8510001 1.226 -0.44800001 16
2.464 1.079 -0.602 35
2.5320001 1.103 -0.57200003 47
2.6129999 1.133 -0.54400003 54
2.6889999 1.161 -0.51200002 15
2.7690001 1.191 -0.479 18
2.8599999 1.227 -0.44600001 21
2.4679999 1.0779999 -0.60000002 37
2.533 1.1 -0.56900001 47
2.615 1.13 -0.54100001 53
2.6889999 1.158 -0.509 15
2.7750001 1.1900001 -0.477 16
2.8640001 1.225 -0.44299999 20
2.473 1.076 -0.59799999 36
2.5380001 1.098 -0.56699997 47
2.6259999 1.131 -0.54000002 53
2.6949999 1.156 -0.50700003 15
2.7839999 1.1900001 -0.47499999 17
2.8699999 1.223 -0.44100001 19
2.4749999 1.072 -0.59500003 39
2.5420001 1.095 -0.565 51
2.6289999 1.127 -0.537 53
2.7049999 1.155 -0.505 14
2.796 1.1900001 -0.47400001 18
2.8740001 1.219 -0.43799999 17
2.484 1.0700001 -0.59399998 34
2.5569999 1.096 -0.565 52
2.631 1.122 -0.53500003 51
2.711 1.152 -0.50300002 17
2.8 1.1849999 -0.47099999 17
2.882 1.216 -0.43599999 16
2.493 1.068 -0.59200001 34
2.5599999 1.091 -0.56199998 54
2.6340001 1.117 -0.53200001 50
2.7119999 1.146 -0.5 14
2.802 1.1799999 -0.46799999 16
2.8889999 1.212 -0.433 19
0 6.1440001 0 0
0 0 0 0
0 0 0 0
0 0 0 255
2.4979999 1.063 -0.58999997 29
2.5680001 1.087 -0.56 47
2.6400001 1.113 -0.52899998 53
2.7219999 1.143 -0.498 17
2.812 1.176 -0.46599999 16
2.8929999 1.207 -0.43000001 21
2.503 1.058 -0.588 27
2.5710001 1.081 -0.55800003 58
2.645 1.107 -0.52700001 50
2.727 1.137 -0.49599999 18
2.8139999 1.169 -0.463 17
2.9030001 1.202 -0.428 18
2.5050001 1.05 -0.58499998 22
2.5769999 1.075 -0.55599999 47
2.652 1.102 -0.52499998 49
2.733 1.131 -0.493 22
2.822 1.164 -0.461 16
2.9130001 1.197 -0.426 17
2.5090001 1.044 -0.58200002 21
2.585 1.0700001 -0.55400002 47
2.655 1.0930001 -0.52200001 50
2.737 1.123 -0.491 29
2.8280001 1.156 -0.458 17
2.9100001 1.187 -0.42199999 19
2.5209999 1.039 -0.58200002 18
2.592 1.063 -0.55199999 47
2.6670001 1.089 -0.52100003 50
2.74 1.114 -0.48800001 35
2.835 1.149 -0.456 19
2.9200001 1.1799999 -0.41999999 17
2.529 1.0319999 -0.57999998 18
2.599 1.056 -0.55000001 49
2.6689999 1.079 -0.51800001 50
2.7509999 1.108 -0.486 43
2.8380001 1.1390001 -0.45300001 17
2.9319999 1.174 -0.41800001 20
2.52 1.018 -0.57499999 24
2.6010001 1.046 -0.54699999 50
2.678 1.072 -0.51599997 54
2.763 1.101 -0.48500001 46
2.849 1.132 -0.45100001 16
2.938 1.164 -0.41600001 19
2.5350001 1.013 -0.574 17
2.6110001 1.038 -0.546 53
2.6819999 1.062 -0.514 51
2.7690001 1.092 -0.48199999 48
2.8510001 1.1210001 -0.44800001 17
2.948 1.156 -0.41299999 21
2.543 1.005 -0.57300001 18
2.6099999 1.026 -0.542 49
2.687 1.052 -0.51099998 50
2.777 1.0829999 -0.47999999 48
2.859 1.1109999 -0.44600001 19
2.9530001 1.1440001 -0.41100001 20
2.55 0.995 -0.57099998 16
2.622 1.0190001 -0.54100001 45
2.701 1.045 -0.50999999 50
2.7780001 1.0700001 -0.477 48
2.8670001 1.101 -0.44400001 17
2.9530001 1.131 -0.40700001 18
2.556 0.98500001 -0.56900001 18
2.6289999 1.0089999 -0.53899997 37
2.7049999 1.033 -0.50800002 50
2.7909999 1.062 -0.47600001 50
2.8800001 1.092 -0.442 17
2.964 1.1210001 -0.405 18
2.5580001 0.97299999 -0.56599998 20
2.635 0.99699998 -0.537 18
2.71 1.021 -0.505 48
2.7939999 1.049 -0.47299999 50
2.8759999 1.076 -0.43799999 19
2.9679999 1.107 -0.403 20
2.563 0.96100003 -0.56400001 22
2.632 0.98199999 -0.53299999 16
2.71 1.007 -0.50199997 52
2.7980001 1.036 -0.47099999 51
2.8789999 1.062 -0.43599999 23
2.9790001 1.096 -0.40099999 22
2.569 0.949 -0.56199998 19
2.642 0.972 -0.53200001 17
2.7219999 0.99599999 -0.50099999 52
2.803 1.022 -0.46799999 49
2.891 1.051 -0.43399999 37
2.983 1.081 -0.398 22
2.572 0.93599999 -0.56 19
2.655 0.96100003 -0.53200001 15
2.72 0.98100001 -0.498 55
2.809 1.0089999 -0.46700001 47
2.902 1.038 -0.433 52
2.9909999 1.067 -0.39700001 21
2.5869999 0.926 -0.56 20
2.6659999 0.94999999 -0.53100002 15
2.733 0.97000003 -0.49700001 46
2.8199999 0.99699998 -0.465 51
2.911 1.025 -0.43099999 50
2.9960001 1.052 -0.39399999 22
0 6.1440001 0 0
0 0 0 0
0 0 0 0
0 0 0 255
2.586 0.91000003 -0.55699998 17
2.6600001 0.93199998 -0.52700001 16
2.744 0.95700002 -0.49599999 29
2.823 0.98100001 -0.463 52
2.911 1.008 -0.42899999 49
3.0079999 1.039 -0.39300001 22
2.5940001 0.898 -0.55599999 18
2.671 0.92000002 -0.52600002 16
2.753 0.94400001 -0.495 16
2.832 0.96700001 -0.46200001 52
2.918 0.99299997 -0.42699999 49
3.0009999 1.018 -0.389 26
2.598 0.88300002 -0.55400002 21
2.677 0.90499997 -0.52499998 15
2.75 0.926 -0.49200001 17
2.8340001 0.95099998 -0.45899999 52
2.924 0.977 -0.42500001 51
3.017 1.005 -0.389 41
2.6040001 0.86900002 -0.55299997 18
2.6830001 0.89099997 -0.523 15
2.7590001 0.912 -0.491 18
2.8399999 0.935 -0.458 50
2.9349999 0.96200001 -0.42399999 48
3.0239999 0.98900002 -0.38699999 56
2.6110001 0.85399997 -0.551 18
2.6830001 0.87300003 -0.51999998 14
2.7609999 0.89499998 -0.48899999 18
2.846 0.91799998 -0.456 39
2.934 0.94300002 -0.421 50
3.027 0.97000003 -0.38499999 57
2.6140001 0.838 -0.54900002 16
2.6930001 0.85900003 -0.51999998 14
2.766 0.87800002 -0.48699999 15
2.846 0.89999998 -0.454 21
2.938 0.926 -0.41999999 50
3.0320001 0.95200002 -0.38299999 58
2.6210001 0.82300001 -0.54900002 18
2.6919999 0.84100002 -0.51700002 15
2.7720001 0.86199999 -0.486 17
2.852 0.88300002 -0.45199999 17
2.948 0.90899998 -0.419 50
3.0369999 0.93400002 -0.382 61
2.625 0.80599999 -0.54699999 17
2.7019999 0.82599998 -0.51700002 14
2.7750001 0.84399998 -0.484 17
2.8510001 0.86299998 -0.44999999 19
2.954 0.89099997 -0.41800001 50
3.043 0.91500002 -0.38 59
2.628 0.78899997 -0.54500002 19
2.7049999 0.80800003 -0.51599997 16
2.78 0.82700002 -0.48300001 20
2.8540001 0.84500003 -0.449 19
2.957 0.87199998 -0.41600001 42
3.0480001 0.89600003 -0.37900001 62
2.6300001 0.77200001 -0.54400003 19
2.71 0.79100001 -0.514 17
2.79 0.81 -0.48300001 15
2.8599999 0.82700002 -0.447 21
2.96 0.85299999 -0.414 21
3.056 0.87699997 -0.37799999 63
2.6340001 0.75400001 -0.54299998 18
2.707 0.77100003 -0.51200002 17
2.793 0.79100001 -0.48100001 16
2.8599999 0.80699998 -0.44600001 17
2.957 0.83099997 -0.412 22
3.059 0.85699999 -0.377 62
2.6389999 0.73699999 -0.542 18
2.717 0.755 -0.51200002 20
2.8010001 0.77399999 -0.48100001 14
2.865 0.78799999 -0.44499999 16
2.964 0.81199998 -0.41100001 17
3.0610001 0.83600003 -0.375 66
2.6440001 0.71899998 -0.54100001 19
2.724 0.73699999 -0.51099998 15
2.806 0.755 -0.47999999 14
2.862 0.76700002 -0.442 21
2.9679999 0.792 -0.41 22
3.0739999 0.81699997 -0.375 28
2.6489999 0.70099998 -0.54000002 17
2.7260001 0.71799999 -0.50999999 14
2.8080001 0.736 -0.479 15
2.8699999 0.74800003 -0.442 25
2.9690001 0.77100003 -0.40900001 20
3.066 0.79299998 -0.373 26
2.652 0.68300003 -0.53899997 19
2.7309999 0.699 -0.509 14
2.813 0.71600002 -0.47799999 15
2.8759999 0.72899997 -0.44100001 24
2.967 0.74900001 -0.40700001 20
3.0669999 0.77100003 -0.37200001 23
2.652 0.66299999 -0.53799999 18
2.73 0.67900002 -0.50800002 15
2.812 0.69499999 -0.47600001 17
2.8770001 0.708 -0.44 17
2.9619999 0.72600001 -0.405 38
3.075 0.75 -0.37099999 26
0 6.1440001 0 0
0 0 0 0
0 0 0 0
0 0 0 255
2.6600001 0.64499998 -0.53799999 18
2.7360001 0.66000003 -0.50700003 16
2.819 0.676 -0.47600001 15
2.891 0.69 -0.44100001 25
2.9679999 0.70499998 -0.405 38
3.075 0.727 -0.37 28
2.658 0.625 -0.53600001 19
2.7379999 0.63999999 -0.50700003 16
2.8199999 0.65499997 -0.47499999 16
2.895 0.66900003 -0.44 18
2.973 0.68400002 -0.40400001 33
3.075 0.704 -0.36899999 28
2.6619999 0.60600001 -0.53600001 19
2.7379999 0.61900002 -0.505 18
2.829 0.63599998 -0.47499999 16
2.898 0.648 -0.44 17
2.9809999 0.66299999 -0.40400001 27
3.076 0.68099999 -0.368 31
2.6700001 0.58700001 -0.53600001 21
2.7390001 0.59799999 -0.50400001 16
2.8299999 0.61400002 -0.47400001 16
2.905 0.62699997 -0.44 18
2.9860001 0.64099997 -0.40400001 24
3.0769999 0.65700001 -0.36700001 66
2.668 0.56599998 -0.53399998 20
2.74 0.57700002 -0.50300002 15
2.8329999 0.59299999 -0.47400001 16
2.904 0.60399997 -0.43900001 17
2.9949999 0.62 -0.40400001 20
3.0810001 0.63499999 -0.36700001 55
2.668 0.54500002 -0.53299999 18
2.7479999 0.55800003 -0.50400001 15
2.8310001 0.57099998 -0.47299999 14
2.9119999 0.58399999 -0.43900001 16
3.003 0.59899998 -0.40400001 19
3.0910001 0.61299998 -0.36700001 47
2.675 0.52600002 -0.53399998 17
2.7509999 0.537 -0.50300002 15
2.835 0.55000001 -0.472 15
2.9159999 0.56199998 -0.43900001 16
3.0050001 0.57599998 -0.40400001 18
3.092 0.58899999 -0.366 42
2.6689999 0.50400001 -0.53100002 19
2.756 0.51599997 -0.50300002 14
2.8369999 0.528 -0.472 15
2.9100001 0.53799999 -0.43700001 16
3.0039999 0.55199999 -0.403 20
3.0999999 0.56599998 -0.36700001 58
2.671 0.48300001 -0.53100002 22
2.7550001 0.49399999 -0.50199997 15
2.8399999 0.50599998 -0.472 14
2.9200001 0.51700002 -0.43799999 16
3.0050001 0.528 -0.40200001 19
3.102 0.542 -0.366 26
2.677 0.463 -0.53100002 27
2.753 0.472 -0.50099999 15
2.839 0.484 -0.47099999 14
2.9119999 0.49200001 -0.43599999 18
3.0079999 0.505 -0.40200001 19
3.0999999 0.51700002 -0.366 27
2.674 0.44100001 -0.52999997 18
2.7609999 0.45199999 -0.50199997 15
2.832 0.46000001 -0.46900001 13
2.911 0.46900001 -0.435 20
3.01 0.48199999 -0.40200001 20
3.1040001 0.493 -0.366 28
2.6659999 0.419 -0.528 17
2.7460001 0.42699999 -0.49900001 14
2.8280001 0.43700001 -0.46799999 19
2.9030001 0.44499999 -0.433 17
2.9920001 0.45500001 -0.39899999 41
3.0999999 0.46799999 -0.36500001 50
2.6789999 0.39899999 -0.52999997 17
2.76 0.40700001 -0.50099999 15
2.8369999 0.41499999 -0.46900001 19
2.915 0.42300001 -0.435 24
3 0.43200001 -0.40000001 20
3.098 0.44299999 -0.36399999 30
2.6800001 0.37799999 -0.52899998 22
2.7620001 0.38600001 -0.5 14
2.8499999 0.39399999 -0.47 14
2.924 0.40099999 -0.43599999 18
3.0120001 0.40900001 -0.40099999 29
3.1070001 0.419 -0.36500001 41
2.6860001 0.35699999 -0.52999997 20
2.767 0.36399999 -0.50099999 13
2.855 0.37200001 -0.47099999 13
2.937 0.37900001 -0.43700001 15
3.0209999 0.38699999 -0.40200001 22
3.112 0.39500001 -0.36500001 23
2.681 0.33500001 -0.52899998 16
2.7679999 0.34200001 -0.5 14
2.8559999 0.34900001 -0.47 13
2.9349999 0.35499999 -0.43599999 17
3.03 0.36300001 -0.403 27
3.118 0.37 -0.36500001 23
0 6.1440001 0 0
0 0 0 0
0 0 0 0
0 0 0 255
2.6860001 0.31400001 -0.52899998 21
2.7690001 0.31999999 -0.5 13
2.8629999 0.32699999 -0.47099999 11
2.9360001 0.33199999 -0.43599999 14
3.0280001 0.33899999 -0.40200001 20
3.125 0.34599999 -0.366 24
2.6889999 0.292 -0.52899998 18
2.7720001 0.29800001 -0.5 12
2.858 0.303 -0.47 12
2.941 0.308 -0.43700001 12
3.03 0.31400001 -0.40200001 20
3.1210001 0.31999999 -0.36500001 21
2.6889999 0.27000001 -0.52899998 16
2.777 0.27500001 -0.50099999 13
2.8599999 0.28 -0.47 11
2.9389999 0.28400001 -0.43599999 14
3.0339999 0.28999999 -0.40200001 17
3.1300001 0.29499999 -0.366 22
2.6930001 0.249 -0.52899998 17
2.7739999 0.252 -0.5 13
2.8629999 0.257 -0.47 12
2.9400001 0.25999999 -0.43599999 16
3.0350001 0.26499999 -0.40200001 17
3.131 0.27000001 -0.366 21
2.697 0.227 -0.52899998 18
2.779 0.23 -0.50099999 14
2.868 0.234 -0.47099999 12
2.9460001 0.237 -0.43700001 12
3.0409999 0.23999999 -0.403 16
3.128 0.243 -0.36500001 20
2.694 0.204 -0.52899998 15
2.773 0.207 -0.49900001 13
2.8670001 0.20999999 -0.47 11
2.95 0.213 -0.43700001 12
3.0350001 0.215 -0.40200001 16
3.1300001 0.21799999 -0.36500001 21
2.7030001 0.183 -0.52999997 18
2.7820001 0.184 -0.50099999 13
2.868 0.186 -0.47 11
2.95 0.18799999 -0.43700001 13
3.0480001 0.19 -0.403 16
3.1359999 0.192 -0.366 19
2.7 0.16 -0.52899998 16
2.7850001 0.161 -0.50099999 13
2.875 0.163 -0.47099999 12
2.95 0.163 -0.43599999 12
3.049 0.16500001 -0.403 15
3.138 0.16599999 -0.366 15
2.704 0.138 -0.52999997 16
2.7869999 0.139 -0.50099999 12
2.875 0.139 -0.47099999 12
2.954 0.139 -0.43700001 12
3.0450001 0.14 -0.40200001 14
3.1389999 0.14 -0.366 15
2.7060001 0.115 -0.52999997 16
2.79 0.116 -0.50099999 12
2.8770001 0.115 -0.47099999 11
2.9549999 0.115 -0.43700001 11
3.0420001 0.114 -0.40200001 15
3.1429999 0.114 -0.366 17
2.7119999 0.093000002 -0.53100002 14
2.7920001 0.093000002 -0.50099999 9
2.878 0.090999998 -0.47099999 11
2.9619999 0.090000004 -0.43799999 11
3.053 0.089000002 -0.403 14
3.1459999 0.088 -0.366 17
2.717 0.071000002 -0.53200001 15
2.7939999 0.068999998 -0.50199997 11
2.8789999 0.067000002 -0.47099999 11
2.957 0.066 -0.43700001 12
3.0539999 0.064000003 -0.403 15
3.1489999 0.061999999 -0.366 17
2.7179999 0.048 -0.53100002 14
2.7939999 0.046 -0.50099999 11
2.881 0.043000001 -0.47099999 12
2.9590001 0.039999999 -0.43700001 12
3.049 0.037999999 -0.40200001 17
3.1459999 0.035 -0.366 19
2.7179999 0.025 -0.53100002 14
2.7920001 0.022 -0.50099999 11
2.878 0.018999999 -0.47 11
2.964 0.015 -0.43700001 12
3.0580001 0.012 -0.403 14
3.1530001 0.0080000004 -0.366 19
2.72 0.0020000001 -0.53100002 14
2.7980001 -0.001 -0.50199997 12
2.885 -0.0049999999 -0.47099999 11
2.9679999 -0.0089999996 -0.43799999 12
3.0580001 -0.013 -0.403 16
3.158 -0.017999999 -0.36700001 18
2.727 -0.02 -0.53299999 13
2.809 -0.025 -0.50300002 12
2.891 -0.028999999 -0.472 10
2.9660001 -0.034000002 -0.43700001 11
3.0610001 -0.039000001 -0.403 15
3.155 -0.045000002 -0.366 19
0 6.1440001 0 0
0 0 0 0
0 0 0 0
0 0 0 255
2.723 -0.043000001 -0.53200001 14
2.806 -0.048999999 -0.50300002 10
2.8870001 -0.054000001 -0.47099999 10
2.97 -0.059 -0.43700001 13
3.0610001 -0.066 -0.403 15
3.154 -0.071999997 -0.366 22
2.7290001 -0.067000002 -0.53299999 12
2.8080001 -0.071999997 -0.50300002 10
2.892 -0.079000004 -0.47099999 10
2.9660001 -0.085000001 -0.43599999 11
3.0639999 -0.092 -0.403 15
3.161 -0.098999999 -0.366 17
2.733 -0.090000004 -0.53299999 13
2.8099999 -0.097000003 -0.50300002 11
2.898 -0.104 -0.472 10
2.977 -0.111 -0.43799999 12
3.0710001 -0.118 -0.403 15
3.1630001 -0.126 -0.366 17
2.73 -0.113 -0.53200001 16
2.816 -0.121 -0.50300002 11
2.9000001 -0.12800001 -0.472 12
2.973 -0.13600001 -0.43700001 13
3.072 -0.14399999 -0.403 16
3.1719999 -0.154 -0.36700001 17
2.7290001 -0.13699999 -0.53200001 16
2.8150001 -0.145 -0.50300002 10
2.898 -0.153 -0.47099999 11
2.9790001 -0.161 -0.43700001 12
3.072 -0.171 -0.403 18
3.1659999 -0.18099999 -0.366 17
2.7390001 -0.161 -0.53299999 13
2.823 -0.169 -0.50400001 11
2.905 -0.178 -0.472 10
2.98 -0.18700001 -0.43700001 13
3.0739999 -0.198 -0.40200001 16
3.1730001 -0.20900001 -0.366 19
2.7409999 -0.184 -0.53299999 13
2.823 -0.19400001 -0.50400001 11
2.901 -0.20299999 -0.47099999 10
2.9860001 -0.213 -0.43799999 12
3.0810001 -0.22400001 -0.403 15
3.177 -0.236 -0.366 16
2.734 -0.207 -0.53200001 13
2.8210001 -0.21799999 -0.50300002 12
2.9070001 -0.229 -0.472 12
2.9860001 -0.23899999 -0.43700001 12
3.085 -0.252 -0.403 15
3.178 -0.264 -0.36500001 21
2.7390001 -0.23100001 -0.53200001 12
2.8210001 -0.242 -0.50300002 11
2.904 -0.25400001 -0.47099999 12
2.9890001 -0.26499999 -0.43700001 13
3.069 -0.27700001 -0.40000001 19
3.181 -0.292 -0.36500001 23
2.74 -0.25600001 -0.53200001 13
2.8239999 -0.26699999 -0.50300002 13
2.901 -0.278 -0.47 11
2.977 -0.28999999 -0.435 11
3.079 -0.30500001 -0.40099999 15
3.1900001 -0.31999999 -0.366 22
2.743 -0.27900001 -0.53299999 15
2.822 -0.29100001 -0.50199997 13
2.9000001 -0.30399999 -0.46900001 11
2.9920001 -0.31799999 -0.43700001 14
3.0869999 -0.33199999 -0.40200001 17
3.1900001 -0.34799999 -0.36500001 20
2.733 -0.30199999 -0.52999997 10
2.8180001 -0.315 -0.50099999 15
2.915 -0.331 -0.47099999 11
2.9949999 -0.34400001 -0.43700001 12
3.0910001 -0.36000001 -0.40200001 16
3.194 -0.377 -0.36500001 20
2.7409999 -0.32699999 -0.53200001 18
2.8280001 -0.34099999 -0.50199997 12
2.9089999 -0.35499999 -0.47 13
2.9960001 -0.37 -0.43599999 13
3.0910001 -0.38699999 -0.40099999 16
3.2 -0.40599999 -0.36500001 19
2.747 -0.352 -0.53200001 16
2.8280001 -0.366 -0.50199997 12
2.9130001 -0.38100001 -0.47 12
2.9979999 -0.39700001 -0.43599999 14
3.098 -0.41499999 -0.40099999 15
3.204 -0.43399999 -0.36399999 18
2.744 -0.37599999 -0.53100002 15
2.8280001 -0.391 -0.50099999 14
2.918 -0.40799999 -0.47 13
3.003 -0.42399999 -0.43599999 13
3.092 -0.442 -0.40000001 16
3.2049999 -0.463 -0.36399999 18
2.7490001 -0.40099999 -0.53200001 14
2.835 -0.417 -0.50199997 12
2.918 -0.43399999 -0.47 12
3 -0.44999999 -0.435 15
3.0999999 -0.47 -0.40000001 15
3.21 -0.49200001 -0.36399999 20
0 6.1440001 0 0
0 0 0 0
0 0 0 0
0 0 0 255
2.7539999 -0.426 -0.53299999 16
2.836 -0.442 -0.50199997 13
2.924 -0.46000001 -0.47 12
3.007 -0.47799999 -0.435 14
3.1029999 -0.49900001 -0.40000001 16
3.211 -0.52100003 -0.36300001 18
2.757 -0.45100001 -0.53299999 16
2.8410001 -0.46799999 -0.50199997 12
2.928 -0.48699999 -0.47 13
3.0120001 -0.50599998 -0.435 15
3.1110001 -0.528 -0.40000001 14
3.2149999 -0.551 -0.36300001 20
2.7620001 -0.47600001 -0.53299999 15
2.848 -0.495 -0.50300002 13
2.9300001 -0.514 -0.47 13
3.0209999 -0.53399998 -0.43599999 14
3.1210001 -0.55699998 -0.40000001 15
3.221 -0.58099997 -0.36199999 17
2.766 -0.50199997 -0.53399998 14
2.846 -0.51999998 -0.50199997 13
2.9330001 -0.54000002 -0.47 11
3.0239999 -0.56199998 -0.43599999 13
3.115 -0.58399999 -0.39899999 13
3.22 -0.61000001 -0.361 21
2.7639999 -0.52600002 -0.53299999 14
2.848 -0.546 -0.50199997 12
2.937 -0.56800002 -0.47 11
3.0209999 -0.58899999 -0.43399999 12
3.1240001 -0.61400002 -0.39899999 14
3.227 -0.63999999 -0.361 20
2.767 -0.551 -0.53299999 13
2.8540001 -0.57300001 -0.50300002 12
2.9419999 -0.59500003 -0.47 11
3.023 -0.61699998 -0.43399999 13
3.1289999 -0.64399999 -0.39899999 15
3.2320001 -0.671 -0.361 17
2.766 -0.57599998 -0.53200001 13
2.8599999 -0.60000002 -0.50300002 13
2.9449999 -0.62300003 -0.47 13
3.03 -0.64600003 -0.43399999 13
3.132 -0.67299998 -0.398 15
3.237 -0.70099998 -0.36000001 18
2.7690001 -0.602 -0.53200001 14
2.8559999 -0.625 -0.50199997 13
2.947 -0.64999998 -0.47 11
3.0320001 -0.67400002 -0.43399999 13
3.1400001 -0.70300001 -0.39899999 14
3.2360001 -0.73000002 -0.359 17
2.7750001 -0.62900001 -0.53299999 14
2.862 -0.653 -0.50199997 13
2.954 -0.67799997 -0.47 13
3.033 -0.70099998 -0.433 13
3.1400001 -0.73199999 -0.398 16
3.2409999 -0.76099998 -0.35800001 18
2.7809999 -0.65499997 -0.53399998 14
2.8629999 -0.67900002 -0.50199997 12
2.9519999 -0.70499998 -0.46900001 13
3.039 -0.73000002 -0.433 13
3.1440001 -0.76099998 -0.39700001 15
3.2460001 -0.792 -0.35800001 19
2.78 -0.68099999 -0.53299999 11
2.8710001 -0.70700002 -0.50300002 12
2.9549999 -0.73299998 -0.46900001 13
3.04 -0.759 -0.433 12
3.1559999 -0.79299998 -0.398 15
3.2550001 -0.824 -0.35800001 19
2.7850001 -0.70700002 -0.53299999 16
2.8699999 -0.73299998 -0.50199997 13
2.9649999 -0.76200002 -0.47 12
3.049 -0.78899997 -0.433 14
3.154 -0.82200003 -0.39700001 15
3.2539999 -0.85500002 -0.35699999 18
2.79 -0.73500001 -0.53399998 17
2.8729999 -0.76099998 -0.50199997 15
2.9619999 -0.78899997 -0.46799999 14
3.0450001 -0.81599998 -0.43200001 15
3.1559999 -0.85100001 -0.396 18
3.257 -0.88499999 -0.35600001 20
2.7939999 -0.76099998 -0.53399998 17
2.8770001 -0.78799999 -0.50199997 14
2.97 -0.81800002 -0.46900001 16
3.052 -0.84600002 -0.43200001 17
3.1619999 -0.88200003 -0.396 18
3.2690001 -0.91900003 -0.35600001 19
2.793 -0.787 -0.53399998 15
2.8840001 -0.81699997 -0.50300002 14
2.967 -0.84500003 -0.46799999 14
3.059 -0.87699997 -0.43200001 14
3.168 -0.91399997 -0.39500001 18
3.2750001 -0.95099998 -0.35499999 22
2.8010001 -0.815 -0.53500003 16
2.8840001 -0.84299999 -0.50199997 14
2.97 -0.87400001 -0.46799999 16
3.0699999 -0.90799999 -0.433 15
3.171 -0.94499999 -0.39500001 16
3.2750001 -0.98199999 -0.354 21
0 6.1440001 0 0
0 0 0 0
0 0 0 0
0 0 0 255
2.806 -0.84299999 -0.53500003 17
2.8859999 -0.87099999 -0.50199997 14
2.9719999 -0.90200001 -0.46700001 13
3.0639999 -0.935 -0.43099999 17
3.177 -0.97600001 -0.39500001 17
3.279 -1.0140001 -0.354 21
2.8 -0.86699998 -0.53399998 14
2.885 -0.89700001 -0.50099999 15
2.9790001 -0.93199998 -0.46799999 14
3.0769999 -0.96799999 -0.43200001 15
3.181 -1.007 -0.39399999 16
3.2880001 -1.0470001 -0.35299999 22
2.8039999 -0.89399999 -0.53399998 14
2.8940001 -0.92699999 -0.50300002 15
2.983 -0.96100003 -0.46799999 18
3.0769999 -0.99699998 -0.43099999 16
3.184 -1.038 -0.39399999 17
3.2980001 -1.082 -0.35299999 22
2.8069999 -0.92199999 -0.53500003 17
2.8940001 -0.95499998 -0.50199997 18
2.9809999 -0.98799998 -0.46700001 14
3.0829999 -1.028 -0.43099999 15
3.188 -1.069 -0.39300001 17
3.3 -1.114 -0.35299999 21
2.8080001 -0.94800001 -0.53399998 17
2.8959999 -0.98299998 -0.50199997 14
2.987 -1.0190001 -0.46700001 15
3.082 -1.057 -0.43099999 14
3.194 -1.102 -0.39300001 16
3.3 -1.145 -0.35100001 23
2.8150001 -0.97799999 -0.53600001 14
2.901 -1.012 -0.50300002 14
2.9920001 -1.049 -0.46799999 16
3.0910001 -1.089 -0.43099999 15
3.197 -1.133 -0.39300001 23
3.3110001 -1.1799999 -0.352 21
2.8180001 -1.005 -0.53600001 16
2.902 -1.04 -0.50199997 14
2.997 -1.079 -0.46799999 15
3.0940001 -1.119 -0.43099999 16
3.2060001 -1.1670001 -0.39300001 19
3.313 -1.2130001 -0.35100001 19
2.822 -1.034 -0.537 17
2.908 -1.069 -0.50300002 15
2.9949999 -1.107 -0.46700001 15
3.0999999 -1.151 -0.43099999 14
3.2130001 -1.2 -0.39300001 17
3.3199999 -1.247 -0.35100001 20
2.819 -1.059 -0.53600001 15
2.9119999 -1.098 -0.50300002 15
3.0009999 -1.137 -0.46799999 15
3.099 -1.1799999 -0.43000001 17
3.211 -1.229 -0.39199999 17
3.323 -1.28 -0.34999999 20
2.8239999 -1.0880001 -0.537 16
2.9070001 -1.124 -0.50300002 14
3.0039999 -1.1670001 -0.46799999 16
3.099 -1.209 -0.43000001 14
3.2219999 -1.2640001 -0.39300001 20
3.329 -1.314 -0.34999999 20
2.8280001 -1.1160001 -0.53799999 17
2.9100001 -1.153 -0.50300002 15
3.01 -1.198 -0.46799999 15
3.1099999 -1.244 -0.43099999 15
3.223 -1.295 -0.39199999 16
3.3340001 -1.348 -0.34900001 19
2.8299999 -1.1440001 -0.53799999 15
2.9170001 -1.184 -0.50400001 15
3.0139999 -1.228 -0.46900001 14
3.1159999 -1.276 -0.43099999 14
3.2260001 -1.3279999 -0.39199999 17
3.342 -1.383 -0.34999999 21
2.8310001 -1.1720001 -0.53899997 18
2.9200001 -1.2130001 -0.505 16
3.016 -1.258 -0.46900001 15
3.115 -1.3049999 -0.43099999 15
3.2290001 -1.36 -0.39199999 18
3.349 -1.418 -0.34900001 19
2.8340001 -1.2 -0.53899997 15
2.9189999 -1.24 -0.50400001 16
3.0139999 -1.286 -0.46900001 15
3.1159999 -1.335 -0.43099999 15
3.2349999 -1.393 -0.39199999 18
3.3499999 -1.451 -0.34900001 21
2.832 -1.226 -0.53899997 20
2.9230001 -1.27 -0.505 18
3.0179999 -1.317 -0.46900001 17
3.122 -1.368 -0.43099999 17
3.2349999 -1.425 -0.391 18
3.352 -1.484 -0.34799999 24
2.832 -1.253 -0.54000002 20
2.925 -1.299 -0.50599998 18
3.023 -1.348 -0.47 17
3.1240001 -1.399 -0.43200001 17
3.2409999 -1.4579999 -0.39199999 20
3.359 -1.52 -0.34900001 25
0 6.1440001 0 0
0 0 0 0
0 0 0 0
0 0 0 255
2.8399999 -1.284 -0.54100001 20
2.927 -1.3279999 -0.50700003 18
3.0239999 -1.377 -0.47 19
3.1270001 -1.4299999 -0.43200001 18
3.2490001 -1.493 -0.39300001 19
3.365 -1.5549999 -0.34900001 24
2.8369999 -1.3099999 -0.54100001 21
2.9319999 -1.359 -0.50800002 19
3.029 -1.409 -0.47099999 18
3.1240001 -1.459 -0.43200001 18
3.253 -1.527 -0.39300001 21
3.362 -1.586 -0.34799999 25
2.8329999 -1.336 -0.54100001 20
2.924 -1.383 -0.50700003 17
3.0350001 -1.441 -0.47299999 17
3.135 -1.495 -0.433 15
3.25 -1.556 -0.39300001 19
3.3729999 -1.624 -0.34900001 22
2.8310001 -1.362 -0.542 21
2.9349999 -1.416 -0.509 19
3.0309999 -1.4680001 -0.472 18
3.1370001 -1.526 -0.43399999 18
3.2579999 -1.591 -0.39399999 17
3.3770001 -1.658 -0.34900001 22
2.8380001 -1.393 -0.54400003 22
2.934 -1.444 -0.50999999 17
3.0339999 -1.499 -0.47299999 16
3.1359999 -1.5549999 -0.43399999 18
3.263 -1.625 -0.39399999 18
3.378 -1.6900001 -0.34900001 24
2.835 -1.418 -0.54400003 20
2.9319999 -1.472 -0.50999999 15
3.0369999 -1.529 -0.47400001 17
3.138 -1.586 -0.435 18
3.26 -1.655 -0.39399999 19
3.3829999 -1.725 -0.34999999 24
2.839 -1.448 -0.546 21
2.937 -1.502 -0.51200002 18
3.0339999 -1.557 -0.47499999 16
3.138 -1.6160001 -0.435 18
3.267 -1.689 -0.39500001 18
3.3789999 -1.756 -0.34999999 23
2.8340001 -1.472 -0.546 20
2.9360001 -1.529 -0.51300001 17
3.0380001 -1.587 -0.47600001 16
3.1459999 -1.65 -0.43700001 18
3.2709999 -1.723 -0.396 18
3.3840001 -1.79 -0.35100001 22
2.8369999 -1.501 -0.54799998 18
2.9330001 -1.5549999 -0.51300001 15
3.0380001 -1.6160001 -0.477 15
3.148 -1.6799999 -0.43799999 17
3.2739999 -1.7539999 -0.398 19
3.391 -1.826 -0.352 21
2.8380001 -1.528 -0.55000001 21
2.9360001 -1.585 -0.51499999 16
3.0409999 -1.646 -0.47799999 16
3.148 -1.71 -0.43900001 17
3.266 -1.781 -0.39700001 20
3.391 -1.857 -0.352 23
2.836 -1.554 -0.55000001 20
2.941 -1.614 -0.51700002 17
3.036 -1.671 -0.479 17
3.1459999 -1.737 -0.44 14
3.27 -1.813 -0.39899999 18
3.3870001 -1.886 -0.35299999 21
2.8369999 -1.58 -0.55199999 20
2.937 -1.6390001 -0.51800001 16
3.04 -1.702 -0.48100001 15
3.1470001 -1.767 -0.44100001 16
3.2709999 -1.844 -0.40000001 18
3.391 -1.919 -0.354 21
2.836 -1.6059999 -0.55400002 19
2.937 -1.6670001 -0.51999998 14
3.0369999 -1.728 -0.48199999 15
3.148 -1.7970001 -0.442 16
3.27 -1.873 -0.40099999 16
3.3929999 -1.952 -0.35499999 22
2.8329999 -1.631 -0.55500001 19
2.934 -1.692 -0.52100003 15
3.0369999 -1.756 -0.48300001 16
3.1470001 -1.825 -0.44400001 15
3.267 -1.901 -0.40099999 16
3.3889999 -1.98 -0.35600001 20
2.8310001 -1.655 -0.55599999 19
2.9349999 -1.719 -0.523 16
3.033 -1.781 -0.484 13
3.145 -1.852 -0.44499999 16
3.2639999 -1.928 -0.40200001 15
3.391 -2.0120001 -0.35699999 21
2.832 -1.681 -0.55900002 18
2.9349999 -1.7460001 -0.52399999 15
3.036 -1.809 -0.486 15
3.1429999 -1.8789999 -0.44600001 15
3.267 -1.959 -0.40400001 17
3.392 -2.0420001 -0.359 19
0 6.1440001 0 0
0 0 0 0
0 0 0 0
0 0 0 255
2.8280001 -1.705 -0.56 16
2.931 -1.7690001 -0.52600002 17
3.03 -1.8329999 -0.48699999 16
3.141 -1.905 -0.44800001 17
3.2679999 -1.988 -0.40599999 18
3.3870001 -2.069 -0.36000001 19
2.8280001 -1.73 -0.56199998 19
2.925 -1.791 -0.52700001 15
3.03 -1.859 -0.49000001 17
3.1440001 -1.934 -0.44999999 17
3.266 -2.0150001 -0.40799999 18
3.392 -2.0999999 -0.36199999 22
2.825 -1.752 -0.56400001 19
2.924 -1.816 -0.52899998 16
3.029 -1.8839999 -0.49200001 18
3.1400001 -1.957 -0.45100001 16
3.2650001 -2.0409999 -0.40900001 17
3.3859999 -2.1240001 -0.36300001 21
2.8210001 -1.774 -0.56599998 18
2.925 -1.841 -0.53200001 16
3.03 -1.91 -0.49399999 16
3.138 -1.983 -0.45300001 17
3.2620001 -2.0669999 -0.41100001 18
3.3840001 -2.151 -0.36500001 20
2.813 -1.7920001 -0.56699997 18
2.9219999 -1.863 -0.53299999 15
3.026 -1.933 -0.49599999 19
3.1389999 -2.0090001 -0.456 16
3.257 -2.0899999 -0.41299999 18
3.375 -2.1730001 -0.366 18
2.8150001 -1.817 -0.56999999 19
2.9130001 -1.882 -0.53500003 15
3.0239999 -1.956 -0.498 17
3.122 -2.023 -0.456 15
3.26 -2.118 -0.41499999 17
3.3829999 -2.204 -0.36899999 19
2.813 -1.8380001 -0.57200003 18
2.914 -1.906 -0.537 16
3.0220001 -1.978 -0.5 18
3.128 -2.0510001 -0.45899999 16
3.2550001 -2.1389999 -0.417 17
3.3800001 -2.2279999 -0.37099999 21
2.813 -1.86 -0.57499999 21
2.9119999 -1.927 -0.54000002 14
3.013 -1.995 -0.50099999 15
3.1259999 -2.073 -0.461 17
3.2460001 -2.158 -0.41800001 17
3.372 -2.2479999 -0.37200001 20
2.809 -1.8789999 -0.57700002 18
2.9070001 -1.9450001 -0.542 15
3.0090001 -2.0150001 -0.50300002 14
3.122 -2.0940001 -0.463 16
3.243 -2.1789999 -0.421 17
3.3659999 -2.267 -0.37400001 17
2.8 -1.8940001 -0.579 17
2.898 -1.96 -0.54299998 14
3.0050001 -2.0339999 -0.50599998 15
3.115 -2.112 -0.465 16
3.2409999 -2.201 -0.42300001 17
3.359 -2.286 -0.37599999 17
2.7969999 -1.9119999 -0.58099997 18
2.8959999 -1.98 -0.54500002 15
3.0009999 -2.052 -0.50800002 14
3.1059999 -2.1259999 -0.46700001 15
3.2390001 -2.221 -0.426 15
3.358 -2.3080001 -0.37900001 18
2.7969999 -1.932 -0.58399999 18
2.892 -1.9960001 -0.54799998 15
3.0009999 -2.072 -0.51099998 16
3.1059999 -2.1459999 -0.47 14
3.2320001 -2.237 -0.428 13
3.355 -2.3269999 -0.38100001 18
2.7980001 -1.951 -0.58700001 16
2.892 -2.016 -0.551 17
2.9909999 -2.085 -0.51200002 16
3.0999999 -2.1619999 -0.472 15
3.2290001 -2.2550001 -0.43000001 14
3.3499999 -2.3440001 -0.38299999 19
2.7950001 -1.967 -0.58999997 16
2.8859999 -2.029 -0.55299997 15
2.9879999 -2.1010001 -0.51499999 15
3.0969999 -2.1789999 -0.47400001 16
3.22 -2.2679999 -0.43200001 14
3.345 -2.3599999 -0.38600001 17
2.7839999 -1.976 -0.59100002 15
2.8829999 -2.0439999 -0.55599999 14
2.9920001 -2.1210001 -0.51899999 16
3.0969999 -2.1960001 -0.477 15
3.214 -2.2809999 -0.43399999 15
3.3399999 -2.3740001 -0.38800001 16
2.78 -1.99 -0.59399998 16
2.8770001 -2.0569999 -0.55800003 15
2.98 -2.1289999 -0.51999998 14
3.0869999 -2.2060001 -0.479 16
3.2160001 -2.299 -0.43700001 13
3.3380001 -2.3889999 -0.391 18
0 6.1440001 0 0
0 0 0 0
0 0 0 0
0 0 0 255
2.7780001 -2.003 -0.59600002 16
2.8740001 -2.069 -0.56 14
2.977 -2.142 -0.52200001 15
3.089 -2.2219999 -0.48199999 15
3.207 -2.309 -0.44 15
3.3340001 -2.4030001 -0.39300001 15
2.773 -2.0139999 -0.59899998 15
2.8629999 -2.076 -0.56099999 13
2.971 -2.152 -0.52499998 15
3.0810001 -2.2320001 -0.484 15
3.1989999 -2.3169999 -0.44100001 14
3.3280001 -2.4130001 -0.396 17
2.767 -2.023 -0.60100001 16
2.859 -2.0869999 -0.56400001 13
2.973 -2.1670001 -0.528 18
3.0739999 -2.2390001 -0.486 16
3.1960001 -2.3280001 -0.44400001 15
3.3239999 -2.4230001 -0.398 17
2.763 -2.0320001 -0.60299999 16
2.8529999 -2.0940001 -0.56599998 14
2.961 -2.1700001 -0.52899998 15
3.066 -2.2460001 -0.48800001 15
3.188 -2.3340001 -0.44600001 14
3.312 -2.427 -0.40000001 18
2.7579999 -2.04 -0.60500002 17
2.852 -2.1040001 -0.56900001 15
2.96 -2.181 -0.53200001 17
3.0610001 -2.253 -0.49000001 15
3.187 -2.345 -0.449 14
3.3099999 -2.4360001 -0.403 19
2.7509999 -2.0450001 -0.60699999 17
2.845 -2.109 -0.57099998 14
2.9549999 -2.187 -0.53399998 17
3.063 -2.2639999 -0.49399999 15
3.1819999 -2.3499999 -0.45100001 16
3.3080001 -2.4430001 -0.40599999 17
2.7449999 -2.049 -0.60900003 15
2.842 -2.1159999 -0.57300001 15
2.9460001 -2.1889999 -0.53600001 15
3.059 -2.2690001 -0.49599999 15
3.178 -2.355 -0.454 16
3.3010001 -2.4460001 -0.40799999 18
2.743 -2.056 -0.611 17
2.8410001 -2.122 -0.57599998 16
2.9430001 -2.194 -0.53799999 17
3.053 -2.2720001 -0.498 15
3.171 -2.3570001 -0.456 15
3.2909999 -2.4449999 -0.41 17
2.7379999 -2.0580001 -0.61299998 17
2.8329999 -2.1229999 -0.57700002 15
2.9430001 -2.2 -0.54100001 18
3.046 -2.2720001 -0.5 14
3.1670001 -2.359 -0.458 15
3.286 -2.4460001 -0.412 18
2.7349999 -2.0610001 -0.61500001 17
2.825 -2.122 -0.57800001 15
2.934 -2.197 -0.542 17
3.033 -2.267 -0.5 14
3.165 -2.3610001 -0.46000001 14
3.2839999 -2.4489999 -0.414 16
2.7320001 -2.063 -0.61699998 28
2.822 -2.1229999 -0.57999998 14
2.928 -2.1960001 -0.54299998 16
3.0339999 -2.27 -0.50300002 15
3.154 -2.3559999 -0.461 13
3.28 -2.448 -0.41600001 16
2.724 -2.0599999 -0.61799997 25
2.8169999 -2.122 -0.58200002 13
2.9230001 -2.1949999 -0.54500002 16
3.03 -2.2690001 -0.505 15
3.1500001 -2.355 -0.463 14
3.2739999 -2.444 -0.41800001 16
2.727 -2.0639999 -0.62099999 21
2.809 -2.1170001 -0.58200002 14
2.9189999 -2.1919999 -0.546 16
3.023 -2.2639999 -0.50599998 16
3.1440001 -2.3499999 -0.465 15
3.267 -2.438 -0.41999999 17
2.717 -2.0569999 -0.62099999 20
2.8080001 -2.1170001 -0.58399999 14
2.9170001 -2.191 -0.54799998 17
3.0190001 -2.26 -0.50800002 15
3.1400001 -2.345 -0.46599999 15
3.2650001 -2.434 -0.42199999 17
2.7149999 -2.0550001 -0.62300003 20
2.8039999 -2.1129999 -0.58600003 14
2.9070001 -2.1819999 -0.54900002 17
3.013 -2.253 -0.50800002 14
3.141 -2.3429999 -0.46799999 16
3.2620001 -2.428 -0.42300001 20
2.7149999 -2.053 -0.62400001 19
2.802 -2.108 -0.58700001 14
2.9059999 -2.178 -0.55000001 16
3.0139999 -2.2509999 -0.51099998 15
3.135 -2.3340001 -0.47 18
3.2520001 -2.4159999 -0.42399999 19
0 6.1440001 0 0
0 0 0 0
0 0 0 0
0 0 0 255
2.704 -2.0420001 -0.62300003 18
2.802 -2.105 -0.58899999 15
2.908 -2.175 -0.55199999 17
3.003 -2.2379999 -0.51099998 15
3.1300001 -2.325 -0.47099999 17
3.2490001 -2.408 -0.42500001 19
2.697 -2.0320001 -0.62300003 19
2.796 -2.095 -0.58899999 15
2.9030001 -2.165 -0.55299997 17
3.003 -2.2320001 -0.51200002 16
3.1300001 -2.3180001 -0.472 17
3.2449999 -2.3970001 -0.426 18
2.7019999 -2.03 -0.62599999 18
2.7950001 -2.089 -0.58999997 16
2.8959999 -2.154 -0.55299997 16
3.0009999 -2.2219999 -0.51300001 16
3.1289999 -2.3099999 -0.47299999 20
3.2449999 -2.388 -0.428 19
2.6960001 -2.0190001 -0.625 18
2.7939999 -2.0810001 -0.59100002 16
2.8970001 -2.1470001 -0.55400002 18
3 -2.2130001 -0.514 16
3.1229999 -2.2950001 -0.47400001 19
3.2409999 -2.375 -0.428 20
2.6900001 -2.007 -0.625 18
2.7869999 -2.0669999 -0.58999997 15
2.8959999 -2.1370001 -0.55500001 18
3 -2.2030001 -0.51499999 16
3.119 -2.2820001 -0.47400001 15
3.2349999 -2.359 -0.42899999 17
2.6930001 -2 -0.62599999 18
2.79 -2.0599999 -0.59100002 14
2.8889999 -2.1210001 -0.55400002 16
2.994 -2.188 -0.51499999 15
3.1259999 -2.2750001 -0.47600001 19
3.2349999 -2.346 -0.43000001 19
2.687 -1.9859999 -0.625 16
2.7869999 -2.0469999 -0.59100002 15
2.891 -2.1110001 -0.55500001 16
2.994 -2.1760001 -0.51499999 17
3.1170001 -2.2550001 -0.47499999 18
3.2390001 -2.335 -0.43099999 23
2.691 -1.977 -0.62599999 16
2.7820001 -2.0320001 -0.58999997 15
2.882 -2.092 -0.55299997 14
2.9949999 -2.1630001 -0.51599997 16
3.1170001 -2.2409999 -0.47499999 20
3.2309999 -2.3139999 -0.43000001 18
2.6889999 -1.964 -0.62599999 17
2.783 -2.0190001 -0.58999997 15
2.8840001 -2.0799999 -0.55400002 16
2.99 -2.1459999 -0.51499999 17
3.1110001 -2.2219999 -0.47499999 18
3.23 -2.2980001 -0.43000001 18
2.688 -1.95 -0.625 17
2.7839999 -2.006 -0.59100002 15
2.8889999 -2.0699999 -0.55500001 17
2.993 -2.132 -0.51499999 18
3.109 -2.204 -0.47400001 16
3.2279999 -2.279 -0.43000001 19
2.688 -1.936 -0.625 18
2.7869999 -1.994 -0.59100002 16
2.8870001 -2.052 -0.55400002 18
2.9879999 -2.112 -0.514 16
3.109 -2.187 -0.47400001 17
3.2279999 -2.2609999 -0.43000001 20
2.6889999 -1.9220001 -0.62400001 21
2.7850001 -1.976 -0.58999997 15
2.888 -2.0369999 -0.55299997 18
2.994 -2.0999999 -0.514 16
3.1140001 -2.1719999 -0.47400001 17
3.2290001 -2.243 -0.43000001 20
2.687 -1.905 -0.62300003 18
2.7880001 -1.962 -0.58899999 16
2.8859999 -2.0179999 -0.55199999 18
2.9909999 -2.079 -0.51300001 17
3.1070001 -2.1489999 -0.472 16
3.2260001 -2.221 -0.42899999 20
2.688 -1.8890001 -0.62199998 19
2.7869999 -1.9450001 -0.588 16
2.8840001 -1.999 -0.551 18
2.9909999 -2.0599999 -0.51200002 17
3.1099999 -2.1300001 -0.472 17
3.2309999 -2.2030001 -0.428 21
2.6889999 -1.872 -0.62099999 19
2.7920001 -1.929 -0.588 19
2.885 -1.98 -0.55000001 16
2.993 -2.0420001 -0.51099998 17
3.115 -2.1129999 -0.472 17
3.224 -2.1760001 -0.42699999 20
2.687 -1.852 -0.61900002 21
2.7850001 -1.905 -0.58499998 19
2.8900001 -1.964 -0.54900002 19
2.9960001 -2.023 -0.51099998 17
3.112 -2.0899999 -0.47 17
3.233 -2.1600001 -0.426 21
0 6.1440001 0 0
0 0 0 0
0 0 0 0
0 0 0 255
2.694 -1.839 -0.61900002 19
2.786 -1.887 -0.583 18
2.8900001 -1.943 -0.54799998 19
2.9949999 -2.0009999 -0.509 16
3.1170001 -2.0699999 -0.46900001 17
3.2309999 -2.135 -0.42500001 22
2.6949999 -1.819 -0.61699998 21
2.79 -1.869 -0.58200002 18
2.891 -1.9220001 -0.546 17
2.9990001 -1.982 -0.50800002 19
3.115 -2.046 -0.46700001 17
3.233 -2.1129999 -0.42399999 21
2.6930001 -1.798 -0.61400002 28
2.796 -1.852 -0.58200002 22
2.8940001 -1.903 -0.54500002 18
2.9949999 -1.957 -0.505 20
3.1140001 -2.0220001 -0.46599999 16
3.2349999 -2.089 -0.42199999 22
2.6960001 -1.779 -0.61299998 24
2.796 -1.831 -0.579 17
2.8959999 -1.882 -0.54299998 17
2.994 -1.932 -0.50300002 17
3.1159999 -1.999 -0.46399999 16
3.2409999 -2.0669999 -0.421 24
2.698 -1.7589999 -0.611 25
2.802 -1.812 -0.57800001 19
2.902 -1.862 -0.54100001 18
3 -1.913 -0.50199997 18
3.125 -1.98 -0.463 20
3.2479999 -2.046 -0.41999999 23
2.704 -1.7410001 -0.60900003 23
2.802 -1.789 -0.57499999 18
2.9000001 -1.8380001 -0.53899997 20
3.0039999 -1.891 -0.5 18
3.1289999 -1.957 -0.461 19
3.243 -2.017 -0.417 21
2.7079999 -1.721 -0.60699999 23
2.8080001 -1.77 -0.574 19
2.9059999 -1.818 -0.537 20
3.0039999 -1.8660001 -0.49700001 19
3.135 -1.9349999 -0.46000001 16
3.2420001 -1.99 -0.41499999 19
2.711 -1.7 -0.60500002 23
2.8099999 -1.748 -0.57200003 18
2.905 -1.793 -0.53399998 17
3.01 -1.845 -0.49599999 15
3.1340001 -1.908 -0.45699999 16
3.2449999 -1.964 -0.41299999 19
2.72 -1.683 -0.60399997 21
2.8139999 -1.726 -0.56900001 19
2.9059999 -1.7690001 -0.53100002 19
3.013 -1.821 -0.49399999 17
3.1370001 -1.883 -0.45500001 17
3.25 -1.9400001 -0.41100001 19
2.7179999 -1.6569999 -0.60000002 24
2.816 -1.7029999 -0.56699997 17
2.9170001 -1.75 -0.53100002 18
3.017 -1.7970001 -0.491 17
3.141 -1.859 -0.45199999 16
3.2550001 -1.915 -0.40799999 19
2.72 -1.635 -0.597 24
2.813 -1.676 -0.56300002 21
2.918 -1.725 -0.528 17
3.0209999 -1.773 -0.48899999 16
3.141 -1.831 -0.449 15
3.2590001 -1.888 -0.40599999 20
2.7279999 -1.615 -0.59600002 26
2.822 -1.656 -0.56099999 20
2.9260001 -1.704 -0.52600002 19
3.0250001 -1.748 -0.486 17
3.142 -1.804 -0.44600001 17
3.2650001 -1.863 -0.40400001 20
2.734 -1.5930001 -0.59299999 25
2.826 -1.633 -0.55800003 18
2.928 -1.679 -0.523 18
3.0280001 -1.723 -0.48300001 18
3.1489999 -1.78 -0.44400001 17
3.2679999 -1.836 -0.40099999 21
2.7360001 -1.5700001 -0.58999997 28
2.8329999 -1.6109999 -0.55599999 23
2.934 -1.656 -0.51999998 17
3.036 -1.701 -0.48100001 17
3.151 -1.753 -0.44100001 18
3.273 -1.8099999 -0.39899999 19
2.7409999 -1.5470001 -0.58700001 33
2.8399999 -1.589 -0.55400002 22
2.938 -1.631 -0.51800001 18
3.0380001 -1.674 -0.47799999 19
3.1530001 -1.726 -0.43799999 19
3.2780001 -1.7819999 -0.396 20
2.7409999 -1.522 -0.58399999 25
2.8410001 -1.564 -0.55000001 22
2.937 -1.603 -0.514 22
3.043 -1.649 -0.47499999 18
3.1589999 -1.7 -0.43599999 19
3.279 -1.753 -0.39300001 25
0 6.1440001 0 0
0 0 0 0
0 0 0 0
0 0 0 255
2.7509999 -1.502 -0.58200002 26
2.8440001 -1.539 -0.54699999 26
2.944 -1.58 -0.51099998 22
3.049 -1.624 -0.47299999 18
3.1619999 -1.673 -0.433 17
3.2850001 -1.727 -0.38999999 23
2.756 -1.478 -0.579 32
2.855 -1.518 -0.54500002 25
2.95 -1.556 -0.50800002 20
3.052 -1.597 -0.47 19
3.1670001 -1.646 -0.43000001 21
3.286 -1.697 -0.38699999 24
2.7550001 -1.452 -0.574 31
2.8570001 -1.492 -0.542 23
2.9519999 -1.53 -0.505 22
3.0610001 -1.574 -0.46700001 20
3.174 -1.6210001 -0.42699999 20
3.2939999 -1.671 -0.384 24
2.76 -1.428 -0.57200003 32
2.8570001 -1.466 -0.53799999 24
2.9549999 -1.5039999 -0.50199997 22
3.062 -1.546 -0.46399999 23
3.174 -1.592 -0.42399999 21
3.2950001 -1.641 -0.38100001 21
2.7639999 -1.404 -0.56800002 30
2.8640001 -1.442 -0.53500003 30
2.9660001 -1.4809999 -0.5 21
3.062 -1.518 -0.46000001 19
3.181 -1.5650001 -0.421 18
3.3010001 -1.613 -0.37799999 21
2.767 -1.3789999 -0.565 49
2.8610001 -1.414 -0.53100002 32
2.967 -1.454 -0.49599999 22
3.0680001 -1.492 -0.45699999 23
3.187 -1.539 -0.41800001 18
3.303 -1.584 -0.375 23
2.7690001 -1.354 -0.56099999 41
2.8699999 -1.391 -0.528 38
2.9679999 -1.426 -0.49200001 34
3.0739999 -1.466 -0.454 23
3.1889999 -1.51 -0.414 22
3.3069999 -1.5549999 -0.37099999 26
2.7739999 -1.329 -0.55800003 26
2.875 -1.3660001 -0.52499998 23
2.97 -1.399 -0.48800001 31
3.076 -1.438 -0.45100001 31
3.187 -1.479 -0.41 25
3.3150001 -1.529 -0.36899999 27
2.7720001 -1.302 -0.55299997 27
2.881 -1.341 -0.52200001 21
2.973 -1.373 -0.48500001 24
3.0680001 -1.406 -0.44600001 30
3.1900001 -1.451 -0.40700001 26
3.312 -1.4960001 -0.36500001 28
2.783 -1.28 -0.551 35
2.882 -1.314 -0.51800001 28
2.973 -1.345 -0.48100001 21
3.0780001 -1.381 -0.44299999 27
3.187 -1.42 -0.403 36
3.3150001 -1.467 -0.361 26
2.7909999 -1.258 -0.54900002 36
2.885 -1.288 -0.51499999 35
2.9809999 -1.3200001 -0.479 27
3.0869999 -1.3559999 -0.44100001 25
3.2079999 -1.4 -0.40200001 21
3.322 -1.4400001 -0.359 25
2.8010001 -1.235 -0.54699999 35
2.8959999 -1.266 -0.51300001 23
2.9979999 -1.3 -0.477 24
3.089 -1.329 -0.43700001 30
3.214 -1.372 -0.39899999 21
3.3329999 -1.413 -0.35600001 20
2.8139999 -1.214 -0.54500002 24
2.9000001 -1.24 -0.50999999 20
3.0039999 -1.274 -0.47400001 23
3.096 -1.303 -0.43399999 24
3.2179999 -1.344 -0.396 18
3.335 -1.3839999 -0.35299999 22
2.822 -1.191 -0.54299998 26
2.9100001 -1.217 -0.50700003 21
3.003 -1.2460001 -0.47099999 20
3.108 -1.279 -0.43200001 19
3.22 -1.316 -0.39199999 18
3.342 -1.3559999 -0.34999999 19
2.8210001 -1.163 -0.53799999 26
2.914 -1.191 -0.50400001 20
3.0109999 -1.221 -0.46799999 20
3.1099999 -1.251 -0.42899999 19
3.227 -1.288 -0.389 18
3.348 -1.3279999 -0.347 21
2.8299999 -1.141 -0.53600001 25
2.921 -1.1670001 -0.50199997 20
3.02 -1.196 -0.465 22
3.1199999 -1.226 -0.42699999 19
3.2309999 -1.261 -0.38600001 17
3.352 -1.299 -0.34400001 19
0 6.1440001 0 0
0 0 0 0
0 0 0 0
0 0 0 255
2.829 -1.113 -0.53200001 26
2.924 -1.141 -0.498 22
3.0220001 -1.169 -0.46200001 18
3.1199999 -1.197 -0.42300001 17
3.2379999 -1.234 -0.384 17
3.358 -1.271 -0.34099999 18
2.835 -1.089 -0.52999997 26
2.931 -1.1160001 -0.49599999 17
3.023 -1.142 -0.45899999 21
3.1300001 -1.173 -0.421 20
3.244 -1.207 -0.38100001 18
3.362 -1.242 -0.338 18
2.845 -1.066 -0.52700001 23
2.9389999 -1.092 -0.493 23
3.0320001 -1.117 -0.456 20
3.1340001 -1.146 -0.41800001 18
3.2520001 -1.1799999 -0.37900001 19
3.369 -1.214 -0.33500001 19
2.846 -1.04 -0.52399999 26
2.9360001 -1.064 -0.48899999 20
3.0380001 -1.091 -0.454 20
3.142 -1.12 -0.41600001 18
3.2539999 -1.151 -0.375 19
3.3670001 -1.183 -0.33199999 19
2.852 -1.016 -0.52100003 24
2.9449999 -1.04 -0.48699999 22
3.0450001 -1.066 -0.45100001 20
3.1470001 -1.0930001 -0.41299999 18
3.256 -1.123 -0.37200001 18
3.3770001 -1.156 -0.33000001 20
2.859 -0.99199998 -0.51899999 23
2.951 -1.015 -0.48500001 18
3.0450001 -1.038 -0.44800001 18
3.152 -1.066 -0.41 16
3.2650001 -1.096 -0.37 19
3.3789999 -1.126 -0.32699999 19
2.8640001 -0.96700001 -0.51599997 19
2.9549999 -0.98900002 -0.48199999 17
3.0510001 -1.013 -0.44600001 18
3.151 -1.0369999 -0.40700001 17
3.2639999 -1.067 -0.36700001 17
3.3800001 -1.097 -0.324 20
2.8710001 -0.94300002 -0.514 20
2.961 -0.96399999 -0.47999999 20
3.0569999 -0.98699999 -0.44299999 19
3.1600001 -1.012 -0.405 15
3.273 -1.041 -0.36500001 18
3.385 -1.069 -0.322 22
2.8770001 -0.91900003 -0.51200002 19
2.9649999 -0.93900001 -0.477 19
3.053 -0.958 -0.44 17
3.164 -0.98500001 -0.40200001 18
3.277 -1.013 -0.36300001 19
3.3900001 -1.04 -0.31900001 18
2.878 -0.89300001 -0.509 21
2.9690001 -0.91299999 -0.47499999 19
3.0580001 -0.93199998 -0.43700001 19
3.1670001 -0.958 -0.40000001 16
3.2820001 -0.98500001 -0.36000001 18
3.3970001 -1.012 -0.317 22
2.8870001 -0.86900002 -0.50800002 22
2.9790001 -0.889 -0.47299999 19
3.0639999 -0.90700001 -0.435 18
3.171 -0.93099999 -0.398 18
3.2839999 -0.95700002 -0.35800001 19
3.3989999 -0.98299998 -0.31400001 20
2.882 -0.84200001 -0.50400001 14
2.98 -0.86299998 -0.47099999 17
3.0699999 -0.88099998 -0.433 15
3.1659999 -0.90100002 -0.39399999 16
3.2850001 -0.92799997 -0.35499999 14
3.398 -0.95300001 -0.31200001 16
2.8940001 -0.81900001 -0.50300002 17
2.98 -0.83600003 -0.46799999 18
3.0699999 -0.85399997 -0.43000001 16
3.178 -0.87699997 -0.39300001 14
3.286 -0.89999998 -0.352 14
3.405 -0.92500001 -0.31 17
2.892 -0.79299998 -0.5 15
2.9890001 -0.81199998 -0.46599999 17
3.0810001 -0.82999998 -0.42899999 14
3.1789999 -0.84899998 -0.391 13
3.2909999 -0.87199998 -0.35100001 14
3.4070001 -0.89600003 -0.308 16
2.898 -0.76899999 -0.498 19
2.987 -0.78500003 -0.463 14
3.0799999 -0.80299997 -0.42699999 15
3.1819999 -0.82200003 -0.38800001 18
3.3010001 -0.84600002 -0.34900001 14
3.4089999 -0.86799997 -0.30599999 18
2.902 -0.74400002 -0.49599999 16
2.9879999 -0.759 -0.461 16
3.0829999 -0.77600002 -0.42500001 15
3.188 -0.796 -0.38699999 14
3.2939999 -0.81599998 -0.34599999 16
3.411 -0.838 -0.303 16
0 6.1440001 0 0
0 0 0 0
0 0 0 0
0 0 0 255
2.901 -0.71799999 -0.49399999 16
2.994 -0.73400003 -0.45899999 17
3.0869999 -0.75 -0.42300001 14
3.187 -0.76700002 -0.384 14
3.2950001 -0.787 -0.34400001 18
3.4170001 -0.81 -0.30199999 16
2.9059999 -0.69300002 -0.49200001 16
2.994 -0.70700002 -0.45699999 16
3.089 -0.72399998 -0.421 14
3.194 -0.74199998 -0.38299999 14
3.3039999 -0.76099998 -0.34299999 14
3.4170001 -0.78100002 -0.30000001 12
2.911 -0.66900003 -0.491 15
2.9979999 -0.68300003 -0.456 16
3.092 -0.69700003 -0.419 14
3.194 -0.71399999 -0.38100001 13
3.306 -0.73299998 -0.34099999 15
3.4189999 -0.75199997 -0.29800001 14
2.9100001 -0.64300001 -0.48800001 16
2.9990001 -0.65600002 -0.454 16
3.095 -0.671 -0.41800001 16
3.1989999 -0.68800002 -0.38 12
3.3010001 -0.704 -0.33899999 15
3.4219999 -0.72399998 -0.29699999 16
2.918 -0.61900002 -0.48800001 16
3 -0.63 -0.45199999 17
3.099 -0.64499998 -0.41600001 14
3.198 -0.66000003 -0.37799999 14
3.3069999 -0.67699999 -0.338 13
3.425 -0.69499999 -0.29499999 18
2.9170001 -0.59399998 -0.486 15
3.006 -0.60600001 -0.45100001 13
3.099 -0.61900002 -0.41499999 14
3.197 -0.63300002 -0.37599999 15
3.306 -0.64899999 -0.336 16
3.4260001 -0.667 -0.294 17
2.9170001 -0.56800002 -0.484 17
3.007 -0.57999998 -0.44999999 16
3.099 -0.59200001 -0.41299999 15
3.2019999 -0.60699999 -0.375 15
3.309 -0.62099999 -0.33500001 16
3.427 -0.639 -0.29300001 17
2.9200001 -0.54400003 -0.48300001 14
3.01 -0.55500001 -0.449 16
3.1010001 -0.56699997 -0.412 14
3.2049999 -0.57999998 -0.37400001 13
3.316 -0.59500003 -0.33399999 16
3.4300001 -0.61000001 -0.292 17
2.9170001 -0.51800001 -0.48100001 16
3.007 -0.52899998 -0.447 15
3.1040001 -0.54100001 -0.41100001 14
3.2079999 -0.55400002 -0.373 13
3.313 -0.56699997 -0.333 15
3.4289999 -0.58200002 -0.28999999 16
2.9230001 -0.495 -0.47999999 16
3.0120001 -0.50400001 -0.44600001 17
3.1040001 -0.51499999 -0.41 14
3.207 -0.52700001 -0.37200001 14
3.3150001 -0.54000002 -0.33199999 14
3.4289999 -0.55400002 -0.289 18
2.9189999 -0.46900001 -0.479 17
3.01 -0.479 -0.44499999 14
3.1040001 -0.48899999 -0.40900001 16
3.2130001 -0.50099999 -0.37200001 15
3.319 -0.51300001 -0.331 13
3.4289999 -0.52600002 -0.28799999 16
2.9159999 -0.44400001 -0.477 14
3.0090001 -0.454 -0.44299999 15
3.1070001 -0.46399999 -0.40799999 13
3.2049999 -0.47400001 -0.37 12
3.3169999 -0.486 -0.33000001 15
3.4330001 -0.498 -0.28799999 18
2.924 -0.421 -0.477 15
3.0120001 -0.42899999 -0.44299999 14
3.108 -0.43799999 -0.40700001 13
3.2090001 -0.44800001 -0.36899999 13
3.319 -0.45899999 -0.33000001 14
3.4289999 -0.47 -0.287 17
2.9200001 -0.396 -0.47600001 15
3.006 -0.403 -0.44100001 13
3.1070001 -0.412 -0.40599999 12
3.2079999 -0.421 -0.36899999 13
3.3139999 -0.43099999 -0.329 15
3.4200001 -0.44100001 -0.28600001 16
2.9200001 -0.37200001 -0.47499999 15
3.0090001 -0.37900001 -0.44100001 14
3.105 -0.38600001 -0.40599999 14
3.207 -0.39500001 -0.368 13
