# .PCD v0.7 - Point Cloud Data file format
VERSION 0.7
FIELDS x y z intensity
SIZE 4 4 4 4
TYPE F F F F
COUNT 1 1 1 1
WIDTH 1600
HEIGHT 1
VIEWPOINT 0 0 0 1 0 0 0
POINTS 1600
DATA ascii
3.0220001 -0.93800002 -0.454 19
3.1270001 -0.96200001 -0.417 19
3.227 -0.98500001 -0.377 18
3.345 -1.0140001 -0.33500001 17
3.4679999 -1.044 -0.29100001 22
2.934 -0.89200002 -0.48800001 19
3.026 -0.912 -0.45199999 18
3.125 -0.93400002 -0.414 14
3.223 -0.95499998 -0.373 15
3.3440001 -0.98400003 -0.33199999 16
3.4719999 -1.0140001 -0.28799999 16
2.9389999 -0.86699998 -0.486 16
3.0320001 -0.88599998 -0.44999999 17
3.128 -0.90600002 -0.412 17
3.234 -0.93000001 -0.37200001 16
3.352 -0.95700002 -0.33000001 15
3.4760001 -0.98500001 -0.28600001 16
0 6.1440001 0 0
0 0 0 0
0 0 0 0
0 0 0 255
2.9430001 -0.84100002 -0.48300001 19
3.033 -0.85900003 -0.447 15
3.1300001 -0.87900001 -0.40900001 15
3.2409999 -0.903 -0.37 16
3.3570001 -0.92799997 -0.32800001 14
3.4760001 -0.954 -0.28299999 17
2.9389999 -0.81300002 -0.47999999 20
3.039 -0.833 -0.44499999 15
3.1370001 -0.85299999 -0.40799999 15
3.2349999 -0.87300003 -0.36700001 14
3.355 -0.898 -0.32600001 14
3.4790001 -0.92500001 -0.28200001 15
2.9460001 -0.78899997 -0.47799999 15
3.0339999 -0.80500001 -0.442 18
3.1340001 -0.824 -0.405 16
3.2349999 -0.84399998 -0.36500001 13
3.3610001 -0.87099999 -0.324 14
3.4820001 -0.89499998 -0.28 17
2.954 -0.764 -0.477 16
3.049 -0.78200001 -0.442 17
3.1440001 -0.79900002 -0.40400001 14
3.2420001 -0.81800002 -0.36300001 14
3.365 -0.84200001 -0.322 14
3.484 -0.866 -0.27700001 18
2.9530001 -0.73799998 -0.47499999 17
3.0480001 -0.755 -0.43900001 15
3.1389999 -0.77100003 -0.40099999 15
3.247 -0.79100001 -0.36199999 13
3.369 -0.81400001 -0.32100001 18
3.493 -0.838 -0.27599999 22
2.96 -0.713 -0.47299999 16
3.0469999 -0.72799999 -0.43700001 15
3.148 -0.745 -0.40000001 15
3.256 -0.76499999 -0.361 13
3.372 -0.78600001 -0.31900001 16
3.4909999 -0.80699998 -0.27399999 16
2.9590001 -0.68699998 -0.47099999 18
3.056 -0.70300001 -0.43599999 15
3.152 -0.71899998 -0.398 15
3.2520001 -0.736 -0.35800001 13
3.3759999 -0.75800002 -0.317 15
3.4909999 -0.778 -0.27200001 17
2.9660001 -0.66299999 -0.47 16
3.052 -0.676 -0.43399999 15
3.1530001 -0.69199997 -0.396 15
3.2579999 -0.70899999 -0.35699999 13
3.375 -0.72899997 -0.31600001 14
3.494 -0.74900001 -0.271 17
2.9630001 -0.63599998 -0.46799999 18
3.0599999 -0.65100002 -0.433 16
3.1489999 -0.66399997 -0.39399999 15
3.2620001 -0.68199998 -0.35600001 14
3.378 -0.70099998 -0.31400001 14
3.493 -0.71899998 -0.26899999 18
2.9619999 -0.61000001 -0.46599999 16
3.0599999 -0.62400001 -0.43099999 16
3.155 -0.63800001 -0.39300001 17
3.2650001 -0.65399998 -0.354 14
3.3729999 -0.671 -0.31200001 15
3.494 -0.68900001 -0.26800001 16
2.9649999 -0.58499998 -0.465 16
3.0580001 -0.59799999 -0.42899999 15
3.1530001 -0.611 -0.391 15
3.2650001 -0.62699997 -0.35299999 15
3.3759999 -0.64300001 -0.31099999 17
3.4949999 -0.66000003 -0.26699999 17
2.9660001 -0.55900002 -0.463 15
3.0669999 -0.57300001 -0.42899999 17
3.1600001 -0.58499998 -0.391 15
3.263 -0.59899998 -0.35100001 14
3.3770001 -0.61400002 -0.31 15
3.4979999 -0.63099998 -0.266 17
2.967 -0.53399998 -0.46200001 19
3.059 -0.546 -0.42699999 19
3.154 -0.55699998 -0.389 16
3.26 -0.57099998 -0.34999999 15
3.378 -0.58600003 -0.30899999 15
3.4960001 -0.602 -0.264 17
2.973 -0.50999999 -0.46200001 17
3.0610001 -0.51999998 -0.426 14
3.161 -0.53200001 -0.389 14
3.2639999 -0.54400003 -0.34900001 12
3.382 -0.55900002 -0.308 15
3.497 -0.57300001 -0.26300001 15
2.973 -0.48500001 -0.46000001 14
3.063 -0.49399999 -0.42500001 14
3.155 -0.50400001 -0.38699999 17
3.2609999 -0.51599997 -0.34799999 13
3.378 -0.52999997 -0.30700001 16
3.493 -0.54400003 -0.26199999 16
2.9679999 -0.45899999 -0.45899999 18
3.062 -0.46799999 -0.42399999 14
3.158 -0.47799999 -0.38600001 13
3.2620001 -0.48899999 -0.347 14
3.3770001 -0.50199997 -0.30599999 16
3.4990001 -0.51599997 -0.26199999 16
0 6.1440001 0 0
0 0 0 0
0 0 0 0
0 0 0 255
2.971 -0.43399999 -0.458 16
3.066 -0.44299999 -0.42300001 14
3.161 -0.45199999 -0.38600001 14
3.2579999 -0.461 -0.34599999 15
3.378 -0.47400001 -0.30500001 15
3.4979999 -0.48699999 -0.26100001 17
2.9749999 -0.40900001 -0.458 16
3.069 -0.41800001 -0.42300001 15
3.1570001 -0.42500001 -0.38499999 12
3.26 -0.435 -0.34599999 14
3.3759999 -0.44600001 -0.30500001 16
3.494 -0.458 -0.25999999 17
2.9679999 -0.38299999 -0.456 15
3.062 -0.391 -0.421 14
3.1570001 -0.39899999 -0.384 15
3.2590001 -0.40799999 -0.345 12
3.375 -0.41800001 -0.30399999 14
3.4909999 -0.42899999 -0.25999999 20
2.967 -0.359 -0.456 15
3.063 -0.366 -0.421 13
3.154 -0.373 -0.38299999 13
3.256 -0.38100001 -0.34400001 13
3.3729999 -0.391 -0.30399999 14
3.4860001 -0.40000001 -0.259 16
2.9719999 -0.33500001 -0.456 15
3.0599999 -0.34099999 -0.41999999 14
3.155 -0.347 -0.38299999 15
3.2579999 -0.35499999 -0.34400001 12
3.3710001 -0.36300001 -0.303 14
3.4879999 -0.37200001 -0.259 17
2.9749999 -0.31 -0.456 16
3.0669999 -0.31600001 -0.421 13
3.1619999 -0.322 -0.384 12
3.26 -0.329 -0.34400001 15
3.3770001 -0.336 -0.30399999 13
3.4890001 -0.34400001 -0.259 15
2.967 -0.285 -0.45500001 15
3.0569999 -0.28999999 -0.41999999 13
3.154 -0.29499999 -0.38299999 13
3.256 -0.30199999 -0.34400001 12
3.372 -0.30899999 -0.303 13
3.4879999 -0.31600001 -0.259 16
2.9690001 -0.26100001 -0.45500001 14
3.0569999 -0.26499999 -0.41999999 13
3.1530001 -0.27000001 -0.38299999 12
3.257 -0.27599999 -0.34400001 13
3.365 -0.28200001 -0.303 13
3.4860001 -0.28799999 -0.259 17
2.9630001 -0.236 -0.454 16
3.0569999 -0.241 -0.41999999 14
3.1470001 -0.244 -0.382 12
3.2509999 -0.249 -0.34400001 13
3.3670001 -0.255 -0.303 13
3.477 -0.25999999 -0.259 18
2.9660001 -0.213 -0.45500001 16
3.0510001 -0.215 -0.419 17
3.148 -0.219 -0.38299999 12
3.2460001 -0.223 -0.34299999 13
3.3599999 -0.228 -0.303 12
3.4809999 -0.233 -0.25999999 17
2.9619999 -0.18799999 -0.454 15
3.053 -0.191 -0.41999999 14
3.1440001 -0.19400001 -0.38299999 13
3.247 -0.197 -0.34400001 12
3.3540001 -0.20100001 -0.303 15
3.4749999 -0.205 -0.25999999 17
2.9579999 -0.164 -0.454 14
3.052 -0.16599999 -0.41999999 15
3.141 -0.168 -0.382 13
3.2420001 -0.171 -0.34400001 12
3.358 -0.17399999 -0.30399999 14
3.474 -0.178 -0.25999999 19
2.9560001 -0.14 -0.45500001 17
3.0420001 -0.142 -0.419 13
3.135 -0.14300001 -0.382 13
3.2390001 -0.145 -0.34400001 13
3.3529999 -0.148 -0.30399999 14
3.4630001 -0.15000001 -0.25999999 17
2.954 -0.117 -0.45500001 15
3.04 -0.118 -0.41999999 13
3.1329999 -0.119 -0.38299999 13
3.237 -0.12 -0.345 12
3.3469999 -0.122 -0.30399999 14
3.464 -0.123 -0.26100001 17
2.9519999 -0.093000002 -0.45500001 14
3.036 -0.093999997 -0.41999999 14
3.1340001 -0.093999997 -0.384 14
3.233 -0.094999999 -0.345 14
3.3410001 -0.096000001 -0.30399999 14
3.457 -0.097000003 -0.26100001 17
2.944 -0.07 -0.45500001 15
3.0309999 -0.07 -0.41999999 14
3.131 -0.07 -0.384 12
3.2320001 -0.07 -0.34599999 16
3.335 -0.07 -0.30500001 14
3.4549999 -0.07 -0.26199999 15
0 6.1440001 0 0
0 0 0 0
0 0 0 0
0 0 0 255
2.9419999 -0.046999998 -0.45500001 14
3.0280001 -0.046 -0.41999999 17
3.1229999 -0.045000002 -0.384 12
3.2279999 -0.045000002 -0.34599999 12
3.3340001 -0.044 -0.30599999 12
3.4489999 -0.044 -0.26300001 14
2.9430001 -0.024 -0.45699999 13
3.0250001 -0.023 -0.421 14
3.128 -0.021 -0.38600001 14
3.2249999 -0.02 -0.347 14
3.335 -0.018999999 -0.30700001 13
3.441 -0.017000001 -0.26300001 15
2.931 -0.001 -0.456 15
3.023 0 -0.42199999 14
3.1199999 0.0020000001 -0.38600001 15
3.211 0.003 -0.347 13
3.3329999 0.0049999999 -0.308 14
3.4349999 0.0070000002 -0.264 16
2.931 0.021 -0.45699999 17
3.0209999 0.023 -0.42300001 17
3.1159999 0.025 -0.38699999 14
3.2130001 0.028000001 -0.34799999 14
3.326 0.029999999 -0.308 14
3.4360001 0.033 -0.26499999 15
2.925 0.043000001 -0.45699999 16
3.017 0.046 -0.42300001 13
3.1140001 0.048999999 -0.38800001 12
3.2019999 0.052000001 -0.34799999 13
3.322 0.055 -0.30899999 12
3.4289999 0.059 -0.266 15
2.9219999 0.064999998 -0.458 16
3.0139999 0.068999998 -0.42399999 15
3.1099999 0.071999997 -0.389 13
3.197 0.075999998 -0.34900001 14
3.316 0.079999998 -0.31 14
3.4230001 0.083999999 -0.26699999 14
2.914 0.088 -0.458 16
3.0090001 0.090999998 -0.42500001 16
3.1059999 0.096000001 -0.389 13
3.198 0.1 -0.35100001 13
3.3080001 0.105 -0.31099999 16
3.424 0.11 -0.26899999 16
2.9130001 0.11 -0.46000001 15
2.997 0.114 -0.42500001 14
3.0999999 0.119 -0.38999999 13
3.1889999 0.123 -0.35100001 12
3.3039999 0.12899999 -0.31200001 14
3.421 0.13500001 -0.27000001 15
2.911 0.131 -0.461 17
2.9979999 0.13600001 -0.426 16
3.092 0.141 -0.391 12
3.1849999 0.146 -0.352 13
3.3 0.153 -0.31299999 14
3.4170001 0.15899999 -0.271 16
2.9100001 0.153 -0.46200001 16
2.9979999 0.15800001 -0.428 13
3.0899999 0.164 -0.39199999 13
3.1830001 0.17 -0.354 12
3.2980001 0.177 -0.315 13
3.408 0.184 -0.27200001 18
2.902 0.17399999 -0.463 16
2.9879999 0.18000001 -0.428 15
3.0840001 0.186 -0.39300001 12
3.178 0.193 -0.35499999 13
3.293 0.2 -0.31600001 14
3.3989999 0.208 -0.273 15
2.8940001 0.19499999 -0.463 17
2.9860001 0.20200001 -0.43000001 13
3.082 0.20900001 -0.39399999 14
3.1730001 0.215 -0.35600001 13
3.2880001 0.22400001 -0.317 14
3.3940001 0.23199999 -0.27399999 15
2.891 0.21600001 -0.46399999 17
2.9820001 0.223 -0.43099999 14
3.0739999 0.23 -0.39500001 14
3.1689999 0.23800001 -0.35699999 14
3.276 0.24699999 -0.317 16
3.3889999 0.25600001 -0.27500001 16
2.8900001 0.237 -0.46599999 18
2.9760001 0.245 -0.43200001 14
3.0710001 0.25299999 -0.396 12
3.1630001 0.25999999 -0.35800001 13
3.2750001 0.27000001 -0.31900001 16
3.391 0.28 -0.27700001 18
2.8789999 0.257 -0.46599999 14
2.9690001 0.26499999 -0.43200001 12
3.0650001 0.27399999 -0.39700001 13
3.158 0.28299999 -0.359 13
3.267 0.29300001 -0.31999999 14
3.3740001 0.303 -0.278 17
2.881 0.278 -0.46799999 13
2.9679999 0.287 -0.43399999 15
3.066 0.296 -0.39899999 13
3.155 0.30500001 -0.361 12
3.2639999 0.315 -0.32100001 13
3.3740001 0.32600001 -0.27900001 17
0 6.1440001 0 0
0 0 0 0
0 0 0 0
0 0 0 255
2.8710001 0.29800001 -0.46799999 15
2.9649999 0.30700001 -0.435 13
3.0599999 0.317 -0.40000001 15
3.1429999 0.32499999 -0.361 14
3.2620001 0.338 -0.32300001 13
3.3659999 0.34900001 -0.28 15
2.8629999 0.317 -0.46900001 15
2.9590001 0.32800001 -0.43599999 13
3.052 0.338 -0.40099999 14
3.1440001 0.34799999 -0.36300001 14
3.247 0.359 -0.32300001 12
3.3659999 0.37200001 -0.28200001 20
2.862 0.338 -0.47 17
2.95 0.347 -0.43700001 16
3.05 0.359 -0.40200001 15
3.1400001 0.36899999 -0.36399999 14
3.2479999 0.38100001 -0.32499999 13
3.359 0.39399999 -0.28299999 15
2.8659999 0.35800001 -0.472 16
2.948 0.36700001 -0.43799999 15
3.0450001 0.37900001 -0.40400001 14
3.131 0.389 -0.36500001 13
3.2409999 0.403 -0.32600001 13
3.346 0.41499999 -0.28400001 17
2.8599999 0.377 -0.47299999 16
2.9489999 0.38800001 -0.44 13
3.0420001 0.39899999 -0.405 13
3.128 0.41 -0.366 13
3.237 0.42399999 -0.32699999 13
3.346 0.43799999 -0.28600001 18
2.8540001 0.396 -0.47400001 17
2.944 0.40700001 -0.44100001 14
3.0339999 0.419 -0.405 14
3.1199999 0.43000001 -0.36700001 14
3.23 0.44499999 -0.32800001 15
3.336 0.45899999 -0.28600001 17
2.848 0.414 -0.47499999 17
2.9419999 0.42699999 -0.44299999 13
3.0250001 0.43799999 -0.40599999 14
3.1199999 0.45100001 -0.368 15
3.2260001 0.46599999 -0.33000001 15
3.3310001 0.47999999 -0.28799999 18
2.842 0.43200001 -0.47499999 16
2.9330001 0.44499999 -0.44299999 16
3.02 0.45699999 -0.40700001 20
3.1140001 0.47099999 -0.36899999 15
3.214 0.48500001 -0.33000001 17
3.3280001 0.50199997 -0.289 17
2.842 0.45100001 -0.477 16
2.928 0.46399999 -0.44400001 16
3.0179999 0.477 -0.40799999 14
3.108 0.49000001 -0.37 14
3.2149999 0.50599998 -0.33199999 14
3.326 0.523 -0.28999999 15
2.8399999 0.47 -0.479 21
2.9260001 0.48199999 -0.44499999 13
3.0139999 0.495 -0.40900001 14
3.105 0.509 -0.37099999 14
3.214 0.52600002 -0.333 13
3.3150001 0.542 -0.29100001 16
2.835 0.48699999 -0.479 22
2.918 0.5 -0.44600001 14
3.0109999 0.51499999 -0.41 14
3.102 0.52899998 -0.373 14
3.2060001 0.54500002 -0.33399999 18
3.313 0.56300002 -0.292 16
2.8299999 0.505 -0.47999999 17
2.915 0.51800001 -0.44600001 15
3.0020001 0.53200001 -0.41100001 14
3.0929999 0.54699999 -0.373 17
3.2 0.565 -0.33399999 14
3.303 0.58200002 -0.292 15
2.8239999 0.52100003 -0.47999999 17
2.9130001 0.53600001 -0.447 18
2.9990001 0.55000001 -0.412 19
3.0910001 0.565 -0.37400001 17
3.1960001 0.583 -0.33500001 14
3.3050001 0.602 -0.294 17
2.819 0.53799999 -0.48100001 17
2.905 0.55199999 -0.44800001 14
2.9979999 0.56800002 -0.41299999 14
3.089 0.58399999 -0.375 14
3.1989999 0.60299999 -0.33700001 14
3.306 0.62199998 -0.29499999 20
2.8210001 0.55500001 -0.48300001 18
2.905 0.56999999 -0.449 15
2.997 0.58600003 -0.414 13
3.086 0.602 -0.37599999 15
3.1919999 0.62099999 -0.33700001 15
3.2969999 0.63999999 -0.29499999 17
2.8110001 0.57099998 -0.48199999 18
2.8989999 0.58600003 -0.449 15
2.99 0.60299999 -0.414 16
3.0780001 0.61900002 -0.37599999 13
3.1849999 0.639 -0.33700001 15
3.2969999 0.66000003 -0.296 19
0 6.1440001 0 0
0 0 0 0
0 0 0 0
0 0 0 255
2.812 0.588 -0.48300001 18
2.9000001 0.60399997 -0.44999999 15
2.9890001 0.62 -0.41499999 14
3.079 0.63700002 -0.377 15
3.1830001 0.65700001 -0.338 14
3.2950001 0.67900002 -0.29699999 17
2.809 0.60299999 -0.484 18
2.8970001 0.62 -0.45100001 16
2.9879999 0.63700002 -0.41600001 17
3.0699999 0.653 -0.377 13
3.1860001 0.676 -0.33899999 15
3.2869999 0.69599998 -0.29699999 18
2.809 0.62 -0.48500001 19
2.891 0.63499999 -0.45100001 17
2.9820001 0.653 -0.41600001 17
3.0710001 0.67000002 -0.37799999 15
3.181 0.69300002 -0.34 15
3.289 0.71399999 -0.29800001 17
2.8039999 0.634 -0.48500001 19
2.888 0.65100002 -0.45100001 15
2.98 0.66900003 -0.41600001 14
3.063 0.685 -0.377 15
3.178 0.70899999 -0.34 15
3.277 0.73000002 -0.29699999 19
2.8010001 0.64899999 -0.48500001 17
2.8870001 0.66600001 -0.45199999 16
2.977 0.685 -0.41600001 14
3.0650001 0.70300001 -0.37799999 15
3.174 0.72600001 -0.34 15
3.28 0.74800003 -0.29800001 18
2.7950001 0.66299999 -0.48500001 19
2.8859999 0.68099999 -0.45199999 15
2.974 0.69999999 -0.41600001 15
3.063 0.71799999 -0.37799999 14
3.174 0.74199998 -0.34 16
3.2750001 0.764 -0.29800001 17
2.8010001 0.67900002 -0.486 18
2.8870001 0.69700003 -0.45300001 14
2.9779999 0.71600002 -0.417 13
3.0569999 0.73299998 -0.37799999 15
3.168 0.75700003 -0.34 17
3.2720001 0.77999997 -0.29800001 19
2.793 0.69099998 -0.48500001 18
2.882 0.70999998 -0.45199999 17
2.974 0.73000002 -0.417 13
3.059 0.74800003 -0.37799999 17
3.1700001 0.773 -0.34 24
3.2709999 0.796 -0.29800001 25
2.796 0.70599997 -0.486 16
2.8829999 0.72399998 -0.45199999 14
2.971 0.74299997 -0.41600001 14
3.0610001 0.76300001 -0.37799999 16
3.1700001 0.78899997 -0.34 44
3.2739999 0.81199998 -0.29800001 32
2.7909999 0.71799999 -0.48500001 17
2.8770001 0.73699999 -0.45100001 15
2.97 0.75700003 -0.41600001 15
3.056 0.77700001 -0.37799999 15
3.164 0.80199999 -0.33899999 44
3.267 0.82599998 -0.29699999 41
2.786 0.72899997 -0.484 18
2.8829999 0.75099999 -0.45199999 14
2.967 0.76999998 -0.41600001 13
3.0610001 0.792 -0.37799999 16
3.164 0.81599998 -0.33899999 47
3.2679999 0.84100002 -0.29699999 42
2.79 0.74299997 -0.484 18
2.8759999 0.76200002 -0.45100001 18
2.97 0.78399998 -0.41600001 14
3.0580001 0.80500001 -0.377 16
3.164 0.82999998 -0.338 47
3.2679999 0.85600001 -0.296 41
2.789 0.755 -0.484 16
2.8740001 0.77399999 -0.44999999 16
2.9690001 0.79699999 -0.41499999 15
3.0639999 0.81900001 -0.377 21
3.1619999 0.84299999 -0.33700001 46
3.2690001 0.87 -0.29499999 42
2.79 0.76700002 -0.484 16
2.8759999 0.787 -0.44999999 16
2.9660001 0.80800003 -0.414 13
3.0580001 0.82999998 -0.37599999 43
3.164 0.85699999 -0.33700001 47
3.2739999 0.884 -0.29499999 41
2.79 0.778 -0.48300001 18
2.881 0.79900002 -0.44999999 17
2.971 0.82099998 -0.414 14
3.0650001 0.84399998 -0.37599999 47
3.161 0.86799997 -0.33500001 47
3.273 0.89700001 -0.294 33
2.7920001 0.78899997 -0.48199999 19
2.8800001 0.81 -0.449 15
2.971 0.833 -0.41299999 15
3.066 0.85600001 -0.375 47
3.1689999 0.88200003 -0.33500001 47
3.276 0.91000003 -0.29300001 19
0 6.1440001 0 0
0 0 0 0
0 0 0 0
0 0 0 255
2.796 0.80000001 -0.48199999 17
2.878 0.81999999 -0.447 15
2.974 0.84399998 -0.412 14
3.0639999 0.86699998 -0.373 46
3.1689999 0.89399999 -0.33399999 48
3.28 0.92299998 -0.29100001 18
2.7920001 0.80900002 -0.47999999 18
2.8840001 0.83200002 -0.447 16
2.974 0.85399997 -0.41100001 19
3.066 0.87800002 -0.37200001 46
3.171 0.90499997 -0.33199999 48
3.283 0.935 -0.28999999 15
2.7980001 0.81999999 -0.47999999 15
2.8859999 0.84200001 -0.44600001 15
2.9719999 0.86400002 -0.40900001 34
3.0680001 0.88800001 -0.37099999 44
3.168 0.91500002 -0.33000001 48
3.286 0.94599998 -0.289 16
2.796 0.82800001 -0.47799999 16
2.8870001 0.85100001 -0.44400001 15
2.9779999 0.87400001 -0.40799999 45
3.075 0.89999998 -0.37 46
3.178 0.92699999 -0.33000001 42
3.2950001 0.95899999 -0.287 19
2.8039999 0.838 -0.47799999 17
2.8900001 0.86000001 -0.44299999 17
2.9820001 0.884 -0.40700001 47
3.075 0.90799999 -0.368 47
3.1789999 0.93699998 -0.32800001 25
3.289 0.96700001 -0.285 18
2.809 0.847 -0.477 18
2.8940001 0.86900002 -0.442 16
2.9809999 0.89200002 -0.40400001 47
3.076 0.917 -0.366 44
3.181 0.94499999 -0.32600001 16
3.2939999 0.977 -0.28299999 16
2.813 0.85500002 -0.47499999 16
2.8900001 0.875 -0.43900001 17
2.987 0.90100002 -0.403 46
3.0829999 0.92699999 -0.36500001 44
3.1900001 0.95599997 -0.324 15
3.303 0.98799998 -0.28099999 17
2.812 0.86199999 -0.47299999 15
2.8959999 0.88300002 -0.43799999 23
2.9909999 0.90899998 -0.40200001 44
3.085 0.93400002 -0.36199999 41
3.194 0.96399999 -0.322 12
3.3069999 0.99599999 -0.27900001 17
2.8180001 0.86900002 -0.472 15
2.904 0.89200002 -0.43700001 28
2.993 0.91500002 -0.40000001 42
3.0910001 0.94199997 -0.361 44
3.1989999 0.972 -0.31999999 15
3.3099999 1.0039999 -0.27700001 18
2.823 0.875 -0.47 16
2.908 0.898 -0.435 44
3.0009999 0.92299998 -0.398 46
3.098 0.94999999 -0.359 46
3.2019999 0.97899997 -0.317 16
3.3169999 1.012 -0.27399999 19
2.8180001 0.87800002 -0.46700001 19
2.9100001 0.903 -0.433 46
3.003 0.92900002 -0.396 44
3.0969999 0.954 -0.35600001 43
3.2079999 0.986 -0.315 16
3.3239999 1.0190001 -0.27200001 21
2.8280001 0.88499999 -0.46599999 19
2.915 0.90899998 -0.43000001 46
3.017 0.93699998 -0.39399999 46
3.1040001 0.96100003 -0.354 37
3.2179999 0.99299997 -0.31299999 17
3.329 1.025 -0.26899999 21
2.836 0.89099997 -0.46399999 19
2.9159999 0.912 -0.428 46
3.016 0.94 -0.391 47
3.1070001 0.96499997 -0.35100001 25
3.2219999 0.99800003 -0.31 16
3.3310001 1.03 -0.266 19
2.8380001 0.89399999 -0.46200001 19
2.927 0.91900003 -0.426 46
3.0220001 0.94499999 -0.389 46
3.1170001 0.97100002 -0.34900001 18
3.227 1.003 -0.308 14
3.3399999 1.036 -0.26300001 17
2.846 0.89899999 -0.46000001 19
2.924 0.92000002 -0.42300001 47
3.03 0.949 -0.38699999 48
3.1289999 0.977 -0.347 16
3.2390001 1.0089999 -0.30500001 15
3.352 1.0420001 -0.26100001 19
2.8469999 0.90100002 -0.45699999 19
2.938 0.92500001 -0.42199999 42
3.0350001 0.95300001 -0.384 46
3.1359999 0.98100001 -0.34400001 15
3.2479999 1.0140001 -0.303 15
3.3559999 1.045 -0.257 18
0 6.1440001 0 0
0 0 0 0
0 0 0 0
0 0 0 255
2.859 0.90499997 -0.456 23
2.947 0.92900002 -0.419 43
3.0439999 0.95599997 -0.382 46
3.1400001 0.98299998 -0.34099999 15
3.2550001 1.016 -0.30000001 15
3.368 1.05 -0.25400001 18
2.862 0.90600002 -0.45300001 29
2.951 0.93000001 -0.417 45
3.05 0.958 -0.37900001 48
3.148 0.986 -0.338 15
3.26 1.018 -0.296 16
3.3770001 1.052 -0.25099999 19
2.8670001 0.90700001 -0.44999999 37
2.9590001 0.93199998 -0.414 43
3.056 0.95899999 -0.37599999 47
3.1559999 0.98799998 -0.336 15
3.267 1.02 -0.29300001 16
3.3859999 1.0549999 -0.248 18
2.8710001 0.90600002 -0.447 44
2.9619999 0.93199998 -0.41100001 42
3.0669999 0.96100003 -0.37400001 46
3.165 0.98900002 -0.333 15
3.2750001 1.02 -0.28999999 16
3.395 1.056 -0.245 18
2.8800001 0.90700001 -0.44499999 47
2.97 0.93199998 -0.40799999 44
3.0710001 0.95999998 -0.37099999 45
3.168 0.98799998 -0.329 14
3.283 1.021 -0.287 17
3.4000001 1.0549999 -0.241 18
2.8840001 0.90600002 -0.442 49
2.98 0.93199998 -0.40599999 46
3.0739999 0.95899999 -0.36700001 45
3.177 0.98799998 -0.32600001 13
3.293 1.021 -0.28400001 17
3.4059999 1.054 -0.237 19
2.8900001 0.90499997 -0.43900001 50
2.9849999 0.93000001 -0.403 44
3.0829999 0.958 -0.36500001 48
3.1830001 0.986 -0.32300001 14
3.2950001 1.018 -0.28 17
3.414 1.053 -0.234 20
2.8940001 0.90200001 -0.43599999 53
2.9960001 0.93000001 -0.40099999 49
3.0880001 0.95499998 -0.361 46
3.1919999 0.98400003 -0.31999999 14
3.312 1.0190001 -0.27700001 17
3.4289999 1.053 -0.23100001 17
2.9059999 0.90100002 -0.43399999 52
3.003 0.92699999 -0.398 47
3.1010001 0.954 -0.359 47
3.2 0.98199999 -0.317 16
3.3199999 1.016 -0.27399999 18
3.4400001 1.051 -0.227 19
2.9100001 0.89700001 -0.43099999 53
3.007 0.92299998 -0.39500001 47
3.1059999 0.94999999 -0.35499999 46
3.2090001 0.97899997 -0.31400001 15
3.3269999 1.013 -0.27000001 17
3.4460001 1.0470001 -0.223 19
2.9200001 0.89399999 -0.42899999 51
3.013 0.91900003 -0.391 46
3.112 0.94599998 -0.352 48
3.217 0.97500002 -0.31 15
3.336 1.0089999 -0.26699999 17
3.461 1.045 -0.22 21
2.925 0.889 -0.426 52
3.0239999 0.91600001 -0.389 49
3.122 0.94199997 -0.34900001 46
3.2279999 0.97100002 -0.308 14
3.3499999 1.006 -0.264 16
3.47 1.04 -0.21600001 21
2.9349999 0.88499999 -0.42300001 43
3.029 0.91000003 -0.38600001 46
3.1300001 0.93699998 -0.34599999 46
3.2349999 0.96499997 -0.30399999 14
3.3499999 0.99800003 -0.25999999 16
3.477 1.033 -0.213 17
2.9389999 0.87800002 -0.41999999 42
3.039 0.90499997 -0.38299999 48
3.1389999 0.93099999 -0.34400001 46
3.2449999 0.95999998 -0.301 15
3.365 0.99299997 -0.257 15
3.4909999 1.029 -0.20900001 17
2.954 0.87400001 -0.419 37
3.046 0.898 -0.38100001 51
3.1429999 0.92400002 -0.34 45
3.2520001 0.95300001 -0.29800001 16
3.375 0.98699999 -0.25400001 15
3.503 1.022 -0.206 18
2.957 0.866 -0.41499999 37
3.0510001 0.88999999 -0.377 48
3.1530001 0.917 -0.338 48
3.26 0.94599998 -0.29499999 14
3.385 0.97899997 -0.25099999 16
3.507 1.013 -0.20200001 19
0 6.1440001 0 0
0 0 0 0
0 0 0 0
0 0 0 255
2.967 0.85900003 -0.41299999 27
3.062 0.884 -0.375 48
3.1600001 0.90899998 -0.33500001 45
3.266 0.93699998 -0.292 14
3.3870001 0.96899998 -0.24699999 17
3.516 1.0039999 -0.199 18
2.9749999 0.85100001 -0.41100001 20
3.066 0.87400001 -0.37200001 48
3.1659999 0.89999998 -0.331 45
3.276 0.92900002 -0.289 14
3.4000001 0.96100003 -0.244 17
3.527 0.99599999 -0.19499999 17
2.9820001 0.84299999 -0.40799999 19
3.073 0.86500001 -0.36899999 47
3.177 0.89200002 -0.329 45
3.2880001 0.92000002 -0.28600001 15
3.4070001 0.95099998 -0.241 16
3.5350001 0.98500001 -0.192 17
2.983 0.83200002 -0.405 17
3.0840001 0.85699999 -0.36700001 50
3.178 0.88 -0.32600001 45
3.2969999 0.91000003 -0.28400001 15
3.421 0.94199997 -0.23800001 16
3.5469999 0.97500002 -0.189 18
2.9909999 0.82200003 -0.403 19
3.085 0.84500003 -0.36399999 49
3.188 0.87 -0.32300001 45
3.302 0.89899999 -0.28 16
3.4260001 0.93099999 -0.235 17
3.5539999 0.963 -0.186 19
2.9979999 0.81099999 -0.40000001 19
3.0929999 0.83399999 -0.36199999 51
3.2 0.86000001 -0.32100001 48
3.3080001 0.88700002 -0.278 16
3.434 0.91799998 -0.23199999 18
3.5569999 0.94999999 -0.183 17
3.006 0.801 -0.398 19
3.102 0.82300001 -0.359 49
3.2060001 0.84799999 -0.31799999 49
3.319 0.87599999 -0.27500001 15
3.441 0.90600002 -0.229 17
3.5739999 0.93900001 -0.18000001 20
3.0139999 0.78899997 -0.396 18
3.1129999 0.81199998 -0.35699999 42
3.211 0.83499998 -0.31600001 48
3.319 0.861 -0.27200001 15
3.45 0.89300001 -0.227 17
3.579 0.92400002 -0.177 20
3.02 0.77700001 -0.39399999 23
3.125 0.801 -0.35600001 30
3.217 0.82200003 -0.31299999 47
3.3329999 0.84899998 -0.27000001 15
3.454 0.87800002 -0.22400001 18
3.5910001 0.91100001 -0.17399999 21
3.0239999 0.764 -0.39199999 19
3.1240001 0.78600001 -0.35299999 19
3.224 0.80900002 -0.31099999 47
3.3380001 0.83499998 -0.26800001 14
3.467 0.86500001 -0.221 17
3.592 0.89499998 -0.171 21
3.0280001 0.75 -0.389 19
3.1270001 0.77200001 -0.34999999 17
3.234 0.79500002 -0.30899999 50
3.3529999 0.82200003 -0.266 17
3.4749999 0.85000002 -0.219 17
3.602 0.88 -0.169 21
3.0250001 0.73400003 -0.38600001 20
3.128 0.75700003 -0.34799999 18
3.2379999 0.77999997 -0.30700001 48
3.3510001 0.80500001 -0.26300001 19
3.4820001 0.83499998 -0.21699999 17
3.612 0.86400002 -0.16599999 22
3.0420001 0.72299999 -0.38600001 22
3.1470001 0.745 -0.347 18
3.2420001 0.76499999 -0.30500001 33
3.359 0.79000002 -0.26100001 15
3.484 0.81699997 -0.214 17
3.6210001 0.847 -0.164 19
3.046 0.708 -0.384 19
3.1459999 0.72799999 -0.345 17
3.257 0.75099999 -0.30399999 16
3.3699999 0.77499998 -0.259 17
3.494 0.801 -0.212 17
3.6289999 0.82999998 -0.162 22
3.05 0.69199997 -0.382 20
3.148 0.71100003 -0.34299999 18
3.26 0.73400003 -0.301 17
3.3759999 0.75800002 -0.257 17
3.506 0.78500003 -0.211 17
3.635 0.81199998 -0.16 22
3.053 0.676 -0.38 20
3.154 0.69499999 -0.34099999 16
3.2690001 0.71799999 -0.30000001 17
3.3800001 0.74000001 -0.255 18
3.507 0.76599997 -0.208 19
3.6329999 0.79100001 -0.15800001 21
0 6.1440001 0 0
0 0 0 0
0 0 0 0
0 0 0 255
3.0550001 0.65899998 -0.37799999 35
3.1589999 0.67799997 -0.33899999 17
3.2690001 0.69999999 -0.29800001 17
3.382 0.72100002 -0.25400001 18
3.516 0.74800003 -0.207 17
3.645 0.773 -0.156 20
3.053 0.64099997 -0.37599999 21
3.155 0.65899998 -0.33700001 22
3.273 0.68099999 -0.296 20
3.3859999 0.70300001 -0.252 17
3.513 0.727 -0.205 18
3.651 0.75400001 -0.154 22
3.056 0.62400001 -0.37400001 30
3.1600001 0.64200002 -0.336 32
3.2690001 0.662 -0.294 24
3.3889999 0.68400002 -0.25 22
3.5220001 0.708 -0.20299999 18
3.6559999 0.73299998 -0.153 22
3.075 0.60900003 -0.375 21
3.1659999 0.62400001 -0.33399999 20
3.276 0.64399999 -0.29300001 30
3.385 0.66299999 -0.248 30
3.5190001 0.68699998 -0.20100001 24
3.661 0.71200001 -0.15099999 18
3.075 0.59100002 -0.373 24
3.181 0.60799998 -0.33399999 18
3.2909999 0.62599999 -0.292 19
3.4000001 0.64499998 -0.24699999 20
3.5190001 0.66500002 -0.2 30
3.6659999 0.69099998 -0.149 20
3.0829999 0.57300001 -0.37200001 21
3.178 0.588 -0.33199999 15
3.2969999 0.60699999 -0.29100001 15
3.411 0.62599999 -0.24699999 19
3.5339999 0.64600003 -0.199 19
3.6700001 0.66900003 -0.148 26
3.089 0.55500001 -0.37200001 21
3.188 0.56999999 -0.33199999 17
3.3010001 0.58700001 -0.28999999 17
3.414 0.60500002 -0.245 18
3.5420001 0.62599999 -0.198 22
3.6719999 0.64600003 -0.147 18
3.092 0.53600001 -0.37099999 23
3.198 0.551 -0.33199999 18
3.3099999 0.56800002 -0.28999999 16
3.4130001 0.583 -0.244 16
3.5450001 0.60399997 -0.197 22
3.6789999 0.62400001 -0.146 22
3.1040001 0.51800001 -0.37099999 19
3.1989999 0.53100002 -0.33000001 16
3.312 0.54699999 -0.289 14
3.418 0.56199998 -0.243 16
3.55 0.58200002 -0.19599999 19
3.687 0.602 -0.145 25
3.1059999 0.498 -0.37 19
3.1989999 0.51099998 -0.329 15
3.322 0.52700001 -0.28799999 14
3.4230001 0.54100001 -0.243 14
3.5580001 0.56 -0.19499999 18
3.6919999 0.579 -0.14399999 22
3.108 0.47799999 -0.36899999 16
3.2079999 0.491 -0.329 16
3.325 0.50599998 -0.28799999 16
3.431 0.51899999 -0.242 15
3.559 0.53600001 -0.19400001 19
3.694 0.55500001 -0.14300001 21
3.108 0.45699999 -0.368 19
3.211 0.47 -0.32800001 16
3.323 0.48300001 -0.287 17
3.4349999 0.49700001 -0.241 18
3.5639999 0.51300001 -0.19400001 19
3.7 0.53100002 -0.142 20
3.115 0.43799999 -0.368 18
3.221 0.44999999 -0.32800001 14
3.3310001 0.46200001 -0.28600001 14
3.4430001 0.47499999 -0.241 17
3.5699999 0.49000001 -0.193 16
3.7019999 0.50599998 -0.142 20
3.1170001 0.41600001 -0.36700001 16
3.2160001 0.42699999 -0.32699999 14
3.332 0.44 -0.285 15
3.447 0.45199999 -0.23999999 16
3.5699999 0.46599999 -0.192 19
3.707 0.48100001 -0.141 22
3.1159999 0.39500001 -0.366 16
3.2219999 0.40599999 -0.32699999 16
3.332 0.417 -0.285 16
3.45 0.42899999 -0.23999999 17
3.582 0.44299999 -0.192 18
3.7090001 0.456 -0.141 21
3.1270001 0.375 -0.36700001 17
3.227 0.384 -0.32699999 14
3.3380001 0.39399999 -0.285 13
3.4519999 0.405 -0.23899999 17
3.5810001 0.41800001 -0.192 17
3.7130001 0.43099999 -0.14 22
0 6.1440001 0 0
0 0 0 0
0 0 0 0
0 0 0 255
3.1240001 0.35299999 -0.366 18
3.2290001 0.36199999 -0.32600001 14
3.346 0.37200001 -0.285 14
3.45 0.38100001 -0.23899999 15
3.5840001 0.39300001 -0.191 16
3.7179999 0.405 -0.14 19
3.135 0.33199999 -0.366 15
3.234 0.33899999 -0.32600001 14
3.346 0.34799999 -0.28400001 13
3.451 0.35600001 -0.23800001 14
3.592 0.368 -0.191 15
3.72 0.37900001 -0.14 19
3.1259999 0.308 -0.36500001 14
3.234 0.31600001 -0.32600001 13
3.3510001 0.32499999 -0.28400001 13
3.4530001 0.33199999 -0.23800001 15
3.5940001 0.34299999 -0.191 16
3.7219999 0.352 -0.139 18
3.1370001 0.287 -0.366 15
3.2409999 0.294 -0.32600001 13
3.352 0.301 -0.28400001 13
3.4630001 0.308 -0.23800001 15
3.5940001 0.317 -0.191 18
3.72 0.32499999 -0.139 19
3.135 0.26499999 -0.36500001 15
3.243 0.271 -0.32600001 13
3.3570001 0.27700001 -0.28400001 13
3.4649999 0.28299999 -0.23800001 14
3.5969999 0.29100001 -0.191 17
3.727 0.29899999 -0.139 19
3.1370001 0.242 -0.36500001 15
3.2449999 0.24699999 -0.32499999 16
3.3559999 0.25299999 -0.28299999 13
3.4690001 0.25799999 -0.23800001 13
3.5999999 0.26499999 -0.19 16
3.7360001 0.27200001 -0.139 20
3.1429999 0.219 -0.36500001 15
3.243 0.22400001 -0.32499999 14
3.362 0.229 -0.28400001 13
3.471 0.233 -0.23800001 14
3.602 0.23899999 -0.19 16
3.733 0.245 -0.139 20
3.142 0.197 -0.36500001 19
3.2460001 0.2 -0.32499999 13
3.3640001 0.204 -0.28400001 13
3.4749999 0.208 -0.23800001 14
3.6059999 0.213 -0.19 16
3.733 0.21699999 -0.139 19
3.142 0.17299999 -0.36399999 15
3.2490001 0.176 -0.32499999 13
3.362 0.17900001 -0.28299999 13
3.4719999 0.182 -0.23800001 13
3.6070001 0.186 -0.19 16
3.7390001 0.19 -0.139 18
3.1370001 0.15000001 -0.36399999 13
3.2490001 0.152 -0.32499999 13
3.3670001 0.154 -0.28299999 13
3.4760001 0.156 -0.23800001 14
3.609 0.15899999 -0.19 15
3.74 0.162 -0.139 18
3.148 0.126 -0.36500001 14
3.2509999 0.127 -0.32499999 12
3.3670001 0.12899999 -0.28299999 13
3.4809999 0.13 -0.23800001 14
3.6129999 0.132 -0.19 17
3.7490001 0.133 -0.139 18
3.1470001 0.103 -0.36399999 14
3.2490001 0.103 -0.324 14
3.3699999 0.104 -0.28299999 13
3.483 0.104 -0.23800001 13
3.6110001 0.104 -0.19 19
3.7449999 0.105 -0.139 19
3.1470001 0.079000004 -0.36399999 14
3.2509999 0.078000002 -0.32499999 13
3.368 0.078000002 -0.28299999 12
3.484 0.077 -0.23800001 14
3.625 0.077 -0.191 16
3.7550001 0.075999998 -0.139 21
3.1500001 0.055 -0.36399999 17
3.253 0.052999999 -0.324 12
3.365 0.052000001 -0.28299999 12
3.483 0.050000001 -0.23800001 12
3.6199999 0.048999999 -0.19 15
3.753 0.046999998 -0.139 19
3.1500001 0.030999999 -0.36399999 16
3.2620001 0.028999999 -0.32499999 14
3.3710001 0.026000001 -0.28299999 13
3.484 0.023 -0.23800001 13
3.6240001 0.021 -0.19 15
3.7620001 0.017999999 -0.139 20
3.1500001 0.0060000001 -0.36399999 16
3.257 0.003 -0.32499999 13
3.3670001 0 -0.28200001 12
3.4809999 -0.0020000001 -0.237 14
3.6210001 -0.0060000001 -0.19 17
3.7579999 -0.0099999998 -0.139 22
0 6.1440001 0 0
0 0 0 0
0 0 0 0
0 0 0 255
3.154 -0.017000001 -0.36399999 16
3.2650001 -0.021 -0.32499999 15
3.3740001 -0.025 -0.28299999 12
3.4879999 -0.028999999 -0.237 14
3.6240001 -0.034000002 -0.19 14
3.7620001 -0.039999999 -0.138 18
3.1600001 -0.041999999 -0.36500001 16
3.2579999 -0.046 -0.324 15
3.3699999 -0.050999999 -0.28200001 12
3.493 -0.057 -0.23800001 14
3.6229999 -0.063000001 -0.19 15
3.7639999 -0.068999998 -0.138 18
3.155 -0.066 -0.36399999 14
3.2579999 -0.071999997 -0.324 14
3.3770001 -0.078000002 -0.28299999 12
3.497 -0.083999999 -0.23800001 13
3.6259999 -0.092 -0.19 15
3.7609999 -0.098999999 -0.138 17
3.1619999 -0.092 -0.36500001 16
3.2650001 -0.097999997 -0.32499999 14
3.3900001 -0.105 -0.28400001 12
3.497 -0.112 -0.237 13
3.6289999 -0.12 -0.19 14
3.7639999 -0.12899999 -0.138 18
3.1719999 -0.117 -0.366 15
3.2690001 -0.124 -0.32499999 13
3.3889999 -0.132 -0.28299999 12
3.5020001 -0.14 -0.23800001 15
3.6270001 -0.149 -0.189 13
3.7650001 -0.15899999 -0.138 20
3.1670001 -0.142 -0.36500001 15
3.2750001 -0.15000001 -0.32499999 13
3.392 -0.15899999 -0.28299999 12
3.503 -0.169 -0.237 16
3.635 -0.17900001 -0.189 15
3.77 -0.19 -0.138 19
3.1700001 -0.168 -0.36500001 18
3.28 -0.177 -0.32600001 14
3.395 -0.18700001 -0.28299999 11
3.507 -0.197 -0.237 14
3.642 -0.20900001 -0.189 15
3.7739999 -0.221 -0.13699999 18
3.175 -0.193 -0.36500001 15
3.2839999 -0.204 -0.32600001 13
3.3959999 -0.214 -0.28299999 12
3.5079999 -0.22499999 -0.237 12
3.6429999 -0.23800001 -0.189 16
3.7820001 -0.252 -0.13699999 17
3.174 -0.219 -0.36500001 15
3.2839999 -0.23 -0.32499999 12
3.4000001 -0.242 -0.28299999 11
3.51 -0.25400001 -0.237 12
3.6389999 -0.26800001 -0.18799999 15
3.779 -0.28299999 -0.13699999 17
3.1730001 -0.244 -0.36399999 15
3.279 -0.25600001 -0.32499999 12
3.401 -0.27000001 -0.28299999 11
3.51 -0.28299999 -0.236 12
3.648 -0.29800001 -0.18799999 15
3.783 -0.31400001 -0.13600001 19
3.1800001 -0.271 -0.36500001 15
3.2839999 -0.28299999 -0.32499999 11
3.405 -0.29800001 -0.28299999 11
3.5190001 -0.31200001 -0.237 16
3.6500001 -0.32800001 -0.18799999 14
3.786 -0.34599999 -0.13600001 18
3.188 -0.29800001 -0.366 18
3.2880001 -0.31099999 -0.32499999 12
3.408 -0.32600001 -0.28200001 12
3.526 -0.34200001 -0.236 11
3.6559999 -0.359 -0.18799999 16
3.789 -0.377 -0.13500001 18
3.184 -0.32300001 -0.36500001 16
3.29 -0.338 -0.324 12
3.411 -0.35499999 -0.28200001 12
3.523 -0.37099999 -0.236 12
3.6589999 -0.38999999 -0.18700001 16
3.7969999 -0.41 -0.13500001 18
3.1889999 -0.34999999 -0.36500001 15
3.29 -0.366 -0.324 13
3.411 -0.38299999 -0.28200001 12
3.5320001 -0.40099999 -0.236 13
3.664 -0.421 -0.18700001 16
3.802 -0.44299999 -0.134 20
3.191 -0.377 -0.36500001 15
3.303 -0.39399999 -0.32499999 13
3.414 -0.412 -0.28099999 12
3.529 -0.43000001 -0.235 12
3.664 -0.45199999 -0.186 16
3.802 -0.47400001 -0.133 19
3.191 -0.40400001 -0.36399999 15
3.2980001 -0.421 -0.324 12
3.4159999 -0.44100001 -0.28099999 12
3.5309999 -0.46000001 -0.234 14
3.665 -0.48300001 -0.185 18
3.8110001 -0.50800002 -0.133 18
0 6.1440001 0 0
0 0 0 0
0 0 0 0
0 0 0 255
3.2019999 -0.43200001 -0.36500001 13
3.306 -0.44999999 -0.324 14
3.4189999 -0.47 -0.28 11
3.536 -0.491 -0.234 13
3.6760001 -0.51499999 -0.185 14
3.8139999 -0.54000002 -0.132 20
3.1949999 -0.458 -0.36300001 14
3.3110001 -0.479 -0.324 12
3.4219999 -0.49900001 -0.28 12
3.549 -0.52200001 -0.234 13
3.6800001 -0.54699999 -0.184 17
3.8169999 -0.57300001 -0.131 19
3.201 -0.486 -0.36399999 15
3.313 -0.50700003 -0.32300001 13
3.425 -0.52899998 -0.27900001 12
3.546 -0.55199999 -0.233 12
3.6830001 -0.579 -0.183 16
3.816 -0.60600001 -0.12899999 20
3.204 -0.51300001 -0.36300001 16
3.319 -0.53600001 -0.32300001 12
3.431 -0.55900002 -0.27900001 12
3.553 -0.58399999 -0.23199999 15
3.688 -0.611 -0.182 18
3.829 -0.64099997 -0.12899999 19
3.2119999 -0.542 -0.36300001 17
3.3210001 -0.565 -0.322 13
3.4360001 -0.58899999 -0.278 13
3.5550001 -0.61500001 -0.23100001 14
3.6960001 -0.64499998 -0.182 17
3.836 -0.67500001 -0.12800001 22
3.21 -0.56900001 -0.36199999 15
3.326 -0.59399998 -0.322 17
3.4360001 -0.61900002 -0.27700001 14
3.5550001 -0.64499998 -0.23 14
3.7060001 -0.67900002 -0.18099999 15
3.8399999 -0.70899999 -0.126 18
3.211 -0.597 -0.36199999 17
3.325 -0.62300003 -0.32100001 14
3.4419999 -0.64999998 -0.27700001 14
3.566 -0.67900002 -0.23 15
3.704 -0.71100003 -0.17900001 16
3.849 -0.745 -0.125 19
3.2149999 -0.62599999 -0.361 17
3.332 -0.653 -0.32100001 14
3.448 -0.68099999 -0.27599999 13
3.572 -0.71100003 -0.229 14
3.714 -0.745 -0.178 16
3.8540001 -0.77999997 -0.124 18
3.2219999 -0.65499997 -0.361 15
3.3380001 -0.68400002 -0.31999999 12
3.4560001 -0.713 -0.27599999 14
3.5810001 -0.74400002 -0.228 15
3.723 -0.77999997 -0.177 17
3.8699999 -0.81699997 -0.123 20
3.227 -0.685 -0.361 16
3.3440001 -0.71399999 -0.31999999 14
3.4560001 -0.74299997 -0.27399999 13
3.579 -0.77600002 -0.227 15
3.7260001 -0.81300002 -0.176 18
3.8699999 -0.852 -0.121 19
3.23 -0.71399999 -0.36000001 15
3.3440001 -0.74400002 -0.31900001 14
3.464 -0.77600002 -0.27399999 13
3.5899999 -0.81 -0.226 13
3.7360001 -0.84899998 -0.175 16
3.8770001 -0.88800001 -0.119 19
3.2320001 -0.74299997 -0.359 15
3.3510001 -0.77499998 -0.31799999 13
3.47 -0.80800003 -0.273 12
3.5999999 -0.84399998 -0.22499999 16
3.74 -0.884 -0.17299999 17
3.892 -0.92699999 -0.118 21
3.2420001 -0.77399999 -0.359 16
3.3529999 -0.80599999 -0.317 14
3.4790001 -0.84100002 -0.27200001 17
3.599 -0.87599999 -0.223 16
3.747 -0.91900003 -0.17200001 16
3.892 -0.96200001 -0.116 19
3.2420001 -0.80299997 -0.35800001 14
3.359 -0.83700001 -0.31600001 12
3.483 -0.87400001 -0.271 15
3.608 -0.91100001 -0.222 14
3.757 -0.95599997 -0.171 16
3.911 -1.002 -0.114 20
3.2409999 -0.83200002 -0.35699999 15
3.365 -0.86900002 -0.31600001 13
3.4860001 -0.90600002 -0.27000001 13
3.6170001 -0.94599998 -0.221 14
3.757 -0.98900002 -0.169 16
3.908 -1.0369999 -0.112 19
3.2479999 -0.86299998 -0.35699999 13
3.3670001 -0.89999998 -0.31400001 13
3.4949999 -0.94 -0.26899999 14
3.6270001 -0.98199999 -0.22 15
3.7679999 -1.027 -0.167 16
3.9200001 -1.076 -0.11 17
0 6.1440001 0 0
0 0 0 0
0 0 0 0
0 0 0 255
3.2609999 -0.89600003 -0.35699999 14
3.3759999 -0.93300003 -0.31400001 12
3.4979999 -0.97299999 -0.26800001 14
3.631 -1.016 -0.21799999 14
3.7820001 -1.066 -0.16599999 16
3.9349999 -1.117 -0.108 18
3.2609999 -0.926 -0.35600001 16
3.378 -0.96499997 -0.31299999 14
3.5020001 -1.006 -0.266 14
3.635 -1.051 -0.21699999 16
3.789 -1.103 -0.164 17
3.944 -1.156 -0.106 17
3.27 -0.95899999 -0.35499999 14
3.3840001 -0.99800003 -0.31200001 14
3.5150001 -1.0420001 -0.266 14
3.642 -1.086 -0.215 17
3.7980001 -1.141 -0.162 17
3.9460001 -1.194 -0.104 19
3.277 -0.991 -0.35499999 15
3.395 -1.0319999 -0.31099999 12
3.5179999 -1.075 -0.264 14
3.6500001 -1.123 -0.214 15
3.8010001 -1.177 -0.16 17
3.9590001 -1.234 -0.101 19
3.28 -1.022 -0.354 15
3.3940001 -1.063 -0.30899999 12
3.5320001 -1.113 -0.26300001 14
3.6589999 -1.16 -0.212 15
3.8110001 -1.216 -0.15800001 16
3.9660001 -1.274 -0.098999999 17
3.28 -1.053 -0.352 15
3.4089999 -1.1 -0.30899999 15
3.5369999 -1.148 -0.26199999 14
3.665 -1.196 -0.20999999 15
3.8239999 -1.256 -0.156 16
3.98 -1.316 -0.097000003 18
3.293 -1.0880001 -0.352 19
3.411 -1.133 -0.308 16
3.5420001 -1.183 -0.25999999 17
3.6719999 -1.233 -0.20900001 16
3.8399999 -1.298 -0.154 19
3.987 -1.357 -0.093999997 22
3.2980001 -1.1210001 -0.35100001 19
3.4260001 -1.17 -0.30700001 15
3.55 -1.219 -0.259 16
3.6849999 -1.273 -0.207 17
3.8469999 -1.337 -0.152 19
4.0019999 -1.4 -0.092 23
3.302 -1.153 -0.34999999 18
3.427 -1.2029999 -0.30599999 16
3.563 -1.257 -0.25799999 16
3.688 -1.309 -0.205 15
3.8640001 -1.38 -0.15000001 18
4.0139999 -1.443 -0.089000002 21
3.312 -1.188 -0.34999999 20
3.434 -1.238 -0.30500001 16
3.5699999 -1.294 -0.257 16
3.701 -1.349 -0.204 17
3.8729999 -1.42 -0.148 19
4.0289998 -1.487 -0.086999997 23
3.313 -1.22 -0.34900001 15
3.4430001 -1.274 -0.30399999 16
3.573 -1.329 -0.255 17
3.7060001 -1.386 -0.20200001 16
3.8740001 -1.4579999 -0.146 19
4.0380001 -1.53 -0.083999999 21
3.3180001 -1.2539999 -0.34799999 15
3.4449999 -1.308 -0.30199999 14
3.5799999 -1.3660001 -0.25299999 14
3.7219999 -1.428 -0.2 17
3.888 -1.501 -0.14300001 19
4.0619998 -1.579 -0.081 21
3.3239999 -1.288 -0.347 17
3.4560001 -1.345 -0.301 15
3.589 -1.404 -0.252 16
3.7249999 -1.466 -0.198 15
3.9000001 -1.544 -0.141 19
4.0669999 -1.62 -0.078000002 23
3.329 -1.322 -0.34599999 18
3.464 -1.382 -0.30000001 15
3.5999999 -1.443 -0.25099999 17
3.7420001 -1.508 -0.197 18
3.905 -1.584 -0.139 19
4.0799999 -1.666 -0.075999998 23
3.342 -1.359 -0.34599999 16
3.4719999 -1.418 -0.29899999 17
3.6029999 -1.48 -0.249 16
3.743 -1.546 -0.19499999 16
3.9170001 -1.627 -0.13600001 18
4.092 -1.711 -0.072999999 22
3.345 -1.393 -0.34400001 17
3.4809999 -1.456 -0.29800001 15
3.6129999 -1.5190001 -0.248 17
3.7609999 -1.59 -0.193 17
3.931 -1.6720001 -0.134 19
4.1040001 -1.757 -0.07 23
0 6.1440001 0 0
0 0 0 0
0 0 0 0
0 0 0 255
3.355 -1.4299999 -0.34400001 16
3.49 -1.495 -0.29699999 15
3.619 -1.557 -0.24600001 17
3.7590001 -1.627 -0.19 16
3.941 -1.716 -0.132 20
4.1110001 -1.801 -0.067000002 22
3.3629999 -1.467 -0.34299999 16
3.49 -1.529 -0.296 15
3.6270001 -1.597 -0.244 17
3.776 -1.6720001 -0.189 16
3.947 -1.758 -0.12899999 17
4.1230001 -1.848 -0.064000003 20
3.368 -1.503 -0.34200001 17
3.5 -1.568 -0.29499999 17
3.6359999 -1.638 -0.243 17
3.7820001 -1.712 -0.18700001 17
3.957 -1.802 -0.127 17
4.1360002 -1.896 -0.061000001 21
3.372 -1.538 -0.34099999 16
3.5090001 -1.608 -0.294 18
3.641 -1.676 -0.241 16
3.79 -1.7539999 -0.185 17
3.971 -1.849 -0.125 18
4.1459999 -1.942 -0.057999998 21
3.375 -1.573 -0.34 19
3.51 -1.643 -0.292 15
3.6459999 -1.715 -0.23899999 15
3.799 -1.7970001 -0.183 16
3.9879999 -1.897 -0.122 19
4.1630001 -1.992 -0.055 23
3.3840001 -1.6109999 -0.34 16
3.5150001 -1.681 -0.29100001 14
3.654 -1.755 -0.23800001 15
3.8099999 -1.84 -0.18099999 15
3.9860001 -1.936 -0.12 16
4.1830001 -2.0450001 -0.052000001 22
3.3929999 -1.65 -0.33899999 17
3.5209999 -1.719 -0.28999999 15
3.658 -1.794 -0.236 14
3.8210001 -1.8839999 -0.17900001 17
4.0029998 -1.985 -0.117 19
4.1880002 -2.0899999 -0.048999999 22
3.401 -1.687 -0.33899999 16
3.533 -1.761 -0.289 14
3.675 -1.84 -0.236 17
3.832 -1.928 -0.178 16
4.0139999 -2.0309999 -0.115 16
4.2020001 -2.1400001 -0.046 22
3.404 -1.723 -0.338 16
3.5380001 -1.799 -0.28799999 19
3.681 -1.88 -0.234 17
3.8410001 -1.972 -0.176 19
4.0219998 -2.076 -0.113 19
4.2059999 -2.1849999 -0.043000001 21
3.411 -1.762 -0.33700001 21
3.546 -1.839 -0.287 17
3.6860001 -1.92 -0.233 18
3.845 -2.0139999 -0.17399999 18
4.0310001 -2.1229999 -0.11 20
4.2259998 -2.2390001 -0.039999999 18
3.4200001 -1.801 -0.33700001 18
3.5450001 -1.875 -0.28600001 18
3.691 -1.96 -0.23100001 18
3.858 -2.0599999 -0.17299999 18
4.0489998 -2.1730001 -0.108 19
4.23 -2.2850001 -0.037 19
3.424 -1.8380001 -0.336 20
3.556 -1.916 -0.285 17
3.7 -2.003 -0.23 16
3.868 -2.1040001 -0.171 17
4.0510001 -2.217 -0.106 18
4.2529998 -2.3410001 -0.035 18
3.428 -1.875 -0.336 18
3.55 -1.95 -0.28400001 15
3.707 -2.0450001 -0.229 18
3.8789999 -2.1500001 -0.169 17
4.0679998 -2.2679999 -0.104 16
4.2639999 -2.392 -0.032000002 19
3.4360001 -1.915 -0.336 19
3.5710001 -1.998 -0.28400001 19
3.7149999 -2.0869999 -0.228 16
3.8829999 -2.1919999 -0.168 17
4.079 -2.316 -0.102 16
4.2740002 -2.441 -0.028999999 18
3.4349999 -1.95 -0.33500001 18
3.566 -2.0309999 -0.28200001 16
3.7190001 -2.128 -0.227 15
3.8940001 -2.2390001 -0.167 16
4.0840001 -2.3610001 -0.1 16
4.289 -2.494 -0.027000001 20
3.4430001 -1.989 -0.33500001 18
3.573 -2.072 -0.28200001 15
3.7309999 -2.174 -0.226 16
3.9030001 -2.2839999 -0.16500001 15
4.0939999 -2.4089999 -0.097999997 16
4.3060002 -2.549 -0.024 18
0 6.1440001 0 0
0 0 0 0
0 0 0 0
0 0 0 255
3.447 -2.027 -0.33500001 17
3.5769999 -2.1110001 -0.28200001 15
3.7409999 -2.217 -0.226 16
3.9089999 -2.3280001 -0.164 16
4.1059999 -2.4590001 -0.097000003 16
4.3179998 -2.6010001 -0.022 18
3.447 -2.063 -0.33399999 16
3.5880001 -2.155 -0.28200001 14
3.7520001 -2.263 -0.22499999 16
3.9219999 -2.3759999 -0.163 15
4.1199999 -2.51 -0.094999999 16
4.3249998 -2.6500001 -0.02 19
3.454 -2.102 -0.33500001 15
3.5880001 -2.191 -0.28099999 14
3.7460001 -2.2969999 -0.22400001 14
3.9200001 -2.415 -0.162 17
4.1279998 -2.556 -0.093000002 16
4.3390002 -2.7030001 -0.017999999 17
3.4530001 -2.1370001 -0.33399999 15
3.599 -2.2349999 -0.28099999 13
3.7620001 -2.346 -0.22400001 15
3.9230001 -2.457 -0.16 16
4.1329999 -2.602 -0.092 16
4.3559999 -2.7579999 -0.016000001 17
3.4519999 -2.171 -0.33399999 15
3.598 -2.2709999 -0.28099999 15
3.766 -2.3859999 -0.22400001 15
3.9349999 -2.5039999 -0.16 16
4.152 -2.6559999 -0.090999998 15
4.362 -2.806 -0.014 17
3.4549999 -2.207 -0.33399999 14
3.6040001 -2.3099999 -0.28099999 13
3.7709999 -2.427 -0.223 15
3.941 -2.5469999 -0.15899999 17
4.1539998 -2.6989999 -0.090000004 16
4.3699999 -2.855 -0.012 17
3.461 -2.2460001 -0.33500001 15
3.609 -2.349 -0.28099999 14
3.7720001 -2.4649999 -0.223 15
3.9460001 -2.5899999 -0.15899999 15
4.1630001 -2.7460001 -0.089000002 15
4.3839998 -2.9070001 -0.011 16
3.461 -2.28 -0.33500001 17
3.6170001 -2.3900001 -0.28200001 15
3.7780001 -2.506 -0.223 16
3.954 -2.6340001 -0.15800001 15
4.1739998 -2.7939999 -0.088 16
4.3850002 -2.9519999 -0.0089999996 16
3.4590001 -2.313 -0.33500001 16
3.6199999 -2.428 -0.28200001 15
3.786 -2.549 -0.223 14
3.96 -2.677 -0.15800001 15
4.178 -2.8380001 -0.088 15
4.408 -3.0109999 -0.0080000004 17
3.4619999 -2.349 -0.336 16
3.6229999 -2.4660001 -0.28299999 15
3.79 -2.589 -0.223 14
3.9630001 -2.7179999 -0.15800001 15
4.1810002 -2.881 -0.086999997 14
4.4099998 -3.0550001 -0.0070000002 17
3.473 -2.391 -0.338 14
3.6289999 -2.5050001 -0.28400001 14
3.79 -2.625 -0.22400001 16
3.9690001 -2.76 -0.15800001 16
4.1890001 -2.9260001 -0.086000003 17
4.4180002 -3.102 -0.0070000002 18
3.4690001 -2.421 -0.33899999 19
3.6289999 -2.539 -0.28400001 15
3.7920001 -2.6619999 -0.22400001 17
3.971 -2.799 -0.15800001 16
4.197 -2.9719999 -0.086000003 16
4.4260001 -3.1500001 -0.0060000001 19
3.4649999 -2.451 -0.33899999 18
3.6329999 -2.576 -0.285 16
3.7880001 -2.694 -0.22400001 16
3.9790001 -2.8410001 -0.15899999 17
4.1929998 -3.0079999 -0.086999997 16
4.4320002 -3.1949999 -0.0060000001 19
3.4690001 -2.4860001 -0.34099999 16
3.6259999 -2.6040001 -0.28600001 14
3.793 -2.733 -0.22499999 16
3.9820001 -2.8800001 -0.15899999 18
4.204 -3.0539999 -0.086999997 18
4.4439998 -3.244 -0.0060000001 19
3.474 -2.5209999 -0.34200001 15
3.6259999 -2.638 -0.287 14
3.793 -2.7679999 -0.226 18
3.993 -2.924 -0.16 16
4.2059999 -3.0929999 -0.086999997 17
4.447 -3.286 -0.0049999999 18
3.4790001 -2.5569999 -0.34400001 15
3.6329999 -2.6760001 -0.28799999 16
3.8010001 -2.8069999 -0.227 16
3.9920001 -2.9579999 -0.161 17
4.2080002 -3.131 -0.088 18
4.4450002 -3.323 -0.0060000001 19
0 6.1440001 0 0
0 0 0 0
0 0 0 0
0 0 0 255
3.4760001 -2.586 -0.345 15
3.6329999 -2.7079999 -0.28999999 16
3.799 -2.839 -0.228 16
3.9960001 -2.9960001 -0.162 15
4.2090001 -3.168 -0.088 15
4.4549999 -3.369 -0.0060000001 16
3.47 -2.6110001 -0.34599999 18
3.6340001 -2.7390001 -0.29100001 15
3.7980001 -2.8699999 -0.23 16
3.994 -3.0280001 -0.163 17
4.2140002 -3.207 -0.089000002 17
4.4489999 -3.401 -0.0070000002 18
3.47 -2.6389999 -0.34799999 16
3.635 -2.77 -0.29300001 15
3.8039999 -2.9059999 -0.23199999 16
3.9949999 -3.0610001 -0.164 16
4.2119999 -3.2390001 -0.090999998 16
4.4530001 -3.4400001 -0.0080000004 15
3.4679999 -2.6659999 -0.34999999 16
3.628 -2.7950001 -0.294 15
3.799 -2.9330001 -0.233 16
3.9949999 -3.092 -0.16599999 17
4.2319999 -3.2880001 -0.092 14
4.4559999 -3.4760001 -0.0089999996 15
3.474 -2.6989999 -0.35299999 16
3.635 -2.8280001 -0.29699999 15
3.7950001 -2.9579999 -0.234 17
3.9990001 -3.1259999 -0.168 16
0 0 0 0
4.4629998 -3.5139999 -0.0099999998 15
3.471 -2.723 -0.35499999 15
3.631 -2.852 -0.29899999 15
3.8010001 -2.9920001 -0.237 17
3.9949999 -3.152 -0.17 16
4.2309999 -3.349 -0.094999999 14
4.4640002 -3.5469999 -0.012 16
3.47 -2.7479999 -0.35699999 16
3.6259999 -2.875 -0.30000001 15
3.7950001 -3.0139999 -0.23800001 16
3.984 -3.171 -0.171 15
4.2259998 -3.3740001 -0.097000003 14
4.461 -3.575 -0.013 15
3.4649999 -2.7679999 -0.359 16
3.6259999 -2.8989999 -0.303 17
3.7939999 -3.039 -0.241 17
3.99 -3.2030001 -0.17299999 16
4.2249999 -3.401 -0.098999999 14
4.46 -3.6029999 -0.015 16
3.4630001 -2.79 -0.361 15
3.6229999 -2.921 -0.30500001 15
3.7920001 -3.0610001 -0.243 17
4.0089998 -3.243 -0.176 14
4.223 -3.425 -0.101 14
4.4549999 -3.625 -0.017000001 15
3.4590001 -2.809 -0.36399999 16
3.6170001 -2.9389999 -0.30700001 15
3.7839999 -3.0780001 -0.245 16
3.977 -3.2409999 -0.177 15
4.2179999 -3.4460001 -0.103 14
4.4530001 -3.6489999 -0.018999999 15
3.45 -2.822 -0.36500001 16
3.6129999 -2.9560001 -0.30899999 15
3.7820001 -3.098 -0.24699999 16
4 -3.2809999 -0.18099999 14
4.2249999 -3.474 -0.106 15
4.448 -3.668 -0.022 14
3.448 -2.8399999 -0.368 19
3.605 -2.9690001 -0.31099999 15
3.773 -3.1099999 -0.249 16
3.9890001 -3.2920001 -0.183 13
4.2150002 -3.487 -0.108 15
4.441 -3.684 -0.025 14
3.4449999 -2.8559999 -0.37 17
3.6059999 -2.9890001 -0.31400001 15
3.7720001 -3.1270001 -0.252 15
3.9860001 -3.309 -0.185 15
4.2059999 -3.4979999 -0.111 15
4.4380002 -3.701 -0.027000001 16
3.4489999 -2.875 -0.373 19
