# .PCD v0.7 - Point Cloud Data file format
VERSION 0.7
FIELDS x y z intensity
SIZE 4 4 4 4
TYPE F F F F
COUNT 1 1 1 1
WIDTH 1658
HEIGHT 1
VIEWPOINT 0 0 0 1 0 0 0
POINTS 1658
DATA ascii
7.335 0.89200002 1.2410001 17
5.3000002 0.60399997 0.46799999 19
5.6100001 0.639 0.58399999 16
5.9200001 0.67500001 0.71100003 16
6.3260002 0.722 0.861 17
6.8299999 0.77999997 1.04 17
7.322 0.838 1.234 16
5.2979999 0.56699997 0.465 17
5.6020002 0.59899998 0.57999998 15
5.927 0.634 0.708 17
6.3179998 0.67699999 0.85600001 18
6.8080001 0.73000002 1.0319999 16
7.3010001 0.78299999 1.225 16
5.2909999 0.52899998 0.46200001 16
5.5830002 0.55800003 0.57499999 16
5.9169998 0.59100002 0.70300001 18
6.3109999 0.63099998 0.85100001 17
6.803 0.68000001 1.027 16
7.283 0.72899997 1.2180001 16
5.2779999 0.491 0.458 17
5.579 0.51800001 0.57200003 15
5.902 0.54799998 0.69800001 17
6.3060002 0.58499998 0.847 15
0 0 0 0
7.2789998 0.676 1.212 18
5.276 0.45300001 0.45500001 16
5.5760002 0.47799999 0.56900001 14
5.8990002 0.505 0.69499999 17
6.2849998 0.53799999 0.83999997 16
6.7259998 0.57499999 1.007 18
7.2639999 0.62099999 1.205 16
5.276 0.41499999 0.45199999 16
5.566 0.43700001 0.56400001 16
5.8940001 0.46200001 0.69099998 17
6.2859998 0.49200001 0.83700001 18
0 0 0 0
7.244 0.56599998 1.198 17
5.2649999 0.37599999 0.449 16
5.5609999 0.396 0.56099999 15
5.8839998 0.41800001 0.68599999 17
6.2729998 0.44499999 0.83200002 18
6.7389998 0.477 1.001 16
7.2249999 0.51099998 1.1900001 17
5.263 0.338 0.44600001 16
5.5500002 0.35499999 0.55699998 17
5.868 0.37400001 0.68199998 18
6.2540002 0.39700001 0.82599998 18
6.71 0.42500001 0.99299997 19
7.2199998 0.456 1.1849999 17
5.257 0.29899999 0.44299999 16
5.5440001 0.31400001 0.55400002 16
5.8590002 0.33000001 0.67699999 16
6.2540002 0.35100001 0.82200003 18
6.6919999 0.37400001 0.98699999 18
7.204 0.40200001 1.179 16
5.25 0.26100001 0.44 18
5.546 0.27399999 0.551 16
5.8569999 0.287 0.67400002 17
6.2470002 0.30399999 0.81800002 18
6.6950002 0.32499999 0.98400003 19
7.1900001 0.34599999 1.1720001 17
5.2449999 0.222 0.43700001 18
5.539 0.23199999 0.54799998 15
5.8559999 0.244 0.671 17
6.2360001 0.257 0.81400001 18
6.6849999 0.27399999 0.97899997 19
7.1690001 0.29100001 1.165 16
5.2509999 0.183 0.435 15
5.5310001 0.191 0.54500002 14
5.8439999 0.199 0.667 17
6.2290001 0.20999999 0.81 18
6.6669998 0.222 0.97299999 18
0 0 0 0
0 6.1440001 0 0
0 0 0 0
0 0 0 0
0 0 0 255
5.2420001 0.14300001 0.43200001 19
5.5289998 0.149 0.542 14
5.8390002 0.155 0.66399997 17
6.2189999 0.163 0.80599999 18
6.6620002 0.171 0.96899998 19
7.1370001 0.18000001 1.153 19
5.2290001 0.104 0.42899999 19
5.5170002 0.107 0.53799999 16
5.8319998 0.11 0.66100001 17
6.2129998 0.115 0.80199999 18
6.652 0.12 0.96499997 19
7.1240001 0.126 1.147 19
5.2199998 0.064999998 0.426 34
5.5120001 0.064999998 0.53600001 16
5.8319998 0.066 0.65799999 17
6.2059999 0.068000004 0.79799998 18
6.6479998 0.068999998 0.96100003 19
7.1329999 0.07 1.145 20
5.2220001 0.025 0.42399999 38
5.5110002 0.023 0.53299999 14
5.8280001 0.022 0.65600002 15
6.2069998 0.02 0.796 16
6.6389999 0.017999999 0.95700002 17
7.1199999 0.015 1.141 17
5.2210002 -0.014 0.42199999 35
5.5100002 -0.017999999 0.53100002 15
5.8249998 -0.022 0.653 16
6.1989999 -0.027000001 0.79299998 17
6.6389999 -0.033 0.95499998 17
7.085 -0.039999999 1.133 16
5.2189999 -0.052999999 0.41999999 36
5.4949999 -0.059 0.528 34
5.8189998 -0.067000002 0.64999998 15
6.197 -0.075000003 0.79100001 17
6.6350002 -0.083999999 0.95200002 18
7.0700002 -0.094999999 1.128 16
5.2290001 -0.093000002 0.41999999 22
5.4949999 -0.102 0.52600002 37
5.8150001 -0.112 0.648 15
6.1929998 -0.123 0.78799999 18
6.6300001 -0.13600001 0.949 19
7.0970001 -0.15099999 1.13 17
5.2160001 -0.134 0.417 16
5.5009999 -0.145 0.52499998 38
5.8099999 -0.15700001 0.64600003 19
6.1919999 -0.17200001 0.787 17
6.6259999 -0.189 0.94700003 18
7.0939999 -0.208 1.127 18
5.2129998 -0.17399999 0.41499999 16
5.5029998 -0.18799999 0.52399999 37
5.8200002 -0.20299999 0.64600003 34
6.184 -0.22 0.78399998 17
6.6290002 -0.241 0.94599998 17
7.0929999 -0.26300001 1.125 19
5.2280002 -0.215 0.41499999 14
5.506 -0.23 0.523 17
5.8189998 -0.248 0.64499998 35
6.1900001 -0.26800001 0.78299999 17
6.625 -0.29300001 0.94400001 18
7.0960002 -0.31999999 1.124 17
5.2199998 -0.25400001 0.414 15
5.5029998 -0.273 0.52200001 14
5.8249998 -0.294 0.64399999 35
6.1599998 -0.31600001 0.778 25
6.6240001 -0.34599999 0.94199997 17
7.0929999 -0.377 1.123 17
5.2179999 -0.296 0.41299999 16
5.5089998 -0.317 0.52200001 15
5.8309999 -0.34 0.64399999 25
6.1760001 -0.366 0.77999997 37
6.6279998 -0.39899999 0.94199997 18
7.0999999 -0.435 1.123 18
5.2189999 -0.33700001 0.412 17
5.5040002 -0.36000001 0.52100003 13
5.8179998 -0.38600001 0.64200002 15
6.1739998 -0.41499999 0.77899998 38
6.6290002 -0.45300001 0.94099998 17
7.0960002 -0.49200001 1.122 17
5.2220001 -0.37799999 0.412 16
5.506 -0.40400001 0.51999998 14
5.8260002 -0.433 0.64200002 15
6.1859999 -0.46599999 0.77999997 39
6.6230001 -0.50599998 0.94 21
7.092 -0.55000001 1.1210001 17
5.2270002 -0.41999999 0.412 15
5.5089998 -0.44800001 0.51999998 15
5.8270001 -0.47999999 0.64200002 16
6.2030001 -0.51700002 0.78200001 18
6.6389999 -0.56099999 0.94199997 37
0 0 0 0
5.2389998 -0.463 0.41299999 14
5.5180001 -0.493 0.52100003 15
5.8299999 -0.52700001 0.64200002 16
6.1989999 -0.56699997 0.78100002 17
6.6350002 -0.61500001 0.94199997 37
7.1230001 -0.66799998 1.126 17
0 6.1440001 0 0
0 0 0 0
0 0 0 0
0 0 0 255
5.2399998 -0.505 0.41299999 14
5.5190001 -0.537 0.52100003 13
5.836 -0.57499999 0.64300001 16
6.2140002 -0.61900002 0.78299999 16
6.6539998 -0.671 0.94499999 33
7.1339998 -0.72799999 1.128 16
5.2509999 -0.54799998 0.414 14
5.5250001 -0.583 0.52200001 15
5.8429999 -0.62300003 0.64399999 16
6.2140002 -0.67000002 0.78399998 16
6.6599998 -0.72600001 0.94599998 17
7.1459999 -0.78799999 1.13 15
5.2490001 -0.58999997 0.414 15
5.5359998 -0.62900001 0.523 13
5.8509998 -0.671 0.64499998 15
6.223 -0.72100002 0.78500003 17
6.6690001 -0.78200001 0.94800001 17
0 0 0 0
5.2589998 -0.63300002 0.41499999 14
5.539 -0.67400002 0.52399999 13
5.8579998 -0.72000003 0.64700001 15
6.2329998 -0.77399999 0.78799999 17
6.6750002 -0.838 0.94999999 17
7.1690001 -0.90899998 1.137 15
5.2620001 -0.676 0.41600001 14
5.5580001 -0.72100002 0.52700001 14
5.8649998 -0.76800001 0.64899999 15
6.2490001 -0.82700002 0.79100001 16
6.6999998 -0.89600003 0.95499998 17
7.191 -0.97299999 1.142 16
5.2610002 -0.71899998 0.417 17
5.5669999 -0.76800001 0.52899998 13
5.8790002 -0.81800002 0.65100002 15
6.2550001 -0.88 0.79299998 17
6.7069998 -0.95300001 0.958 18
7.1760001 -1.031 1.141 17
5.2709999 -0.764 0.41800001 14
5.566 -0.81400001 0.52999997 14
5.8860002 -0.86799997 0.65399998 15
6.2659998 -0.93400002 0.796 16
6.697 -1.008 0.95899999 17
7.2340002 -1.1 1.153 16
5.2740002 -0.80800003 0.41999999 15
5.5760002 -0.861 0.53200001 14
5.901 -0.92000002 0.65700001 15
6.2859998 -0.98900002 0.801 16
0 0 0 0
7.2290001 -1.161 1.155 18
5.29 -0.85399997 0.42300001 15
5.5910001 -0.91000003 0.53500003 14
5.9070001 -0.97000003 0.66000003 15
6.2969999 -1.044 0.80400002 16
6.789 -1.137 0.977 16
7.2589998 -1.228 1.163 18
5.303 -0.89999998 0.42500001 15
5.6030002 -0.95899999 0.53799999 14
5.921 -1.022 0.66299999 16
6.3239999 -1.101 0.81 18
6.7989998 -1.196 0.98100001 16
7.2930002 -1.296 1.1720001 16
5.316 -0.94599998 0.428 15
5.6199999 -1.0089999 0.542 15
5.9330001 -1.074 0.667 14
6.3210001 -1.155 0.81199998 16
0 0 0 0
7.316 -1.363 1.179 15
5.3210001 -0.99199998 0.43000001 17
5.6290002 -1.058 0.54500002 14
5.9419999 -1.126 0.67000002 14
6.3610001 -1.216 0.82099998 14
6.849 -1.322 0.995 16
7.3499999 -1.433 1.188 16
5.3410001 -1.04 0.43399999 15
5.6459999 -1.109 0.54900002 14
5.9640002 -1.181 0.676 15
6.3670001 -1.272 0.82499999 16
6.855 -1.382 1 16
7.375 -1.501 1.197 16
5.3569999 -1.0880001 0.43799999 15
5.6589999 -1.159 0.55299997 14
5.9910002 -1.237 0.68199998 16
6.4029999 -1.334 0.833 15
6.875 -1.4450001 1.007 16
7.3790002 -1.566 1.202 16
5.3610001 -1.135 0.44100001 15
5.6690001 -1.209 0.55699998 15
6.007 -1.2920001 0.68699998 15
6.4330001 -1.396 0.83999997 15
6.9029999 -1.511 1.015 16
7.4169998 -1.6390001 1.2130001 16
5.388 -1.186 0.44600001 13
5.6890001 -1.262 0.56199998 15
6.0289998 -1.349 0.69300002 16
6.4499998 -1.455 0.847 15
6.9239998 -1.576 1.023 16
7.4489999 -1.712 1.224 15
0 6.1440001 0 0
0 0 0 0
0 0 0 0
0 0 0 255
5.3920002 -1.233 0.449 13
5.7020001 -1.314 0.56699997 14
6.046 -1.404 0.699 15
6.4580002 -1.513 0.852 16
6.954 -1.643 1.0319999 15
7.4850001 -1.785 1.235 16
5.4070001 -1.283 0.45300001 15
5.7199998 -1.367 0.57200003 15
6.0749998 -1.464 0.70599997 17
6.5 -1.579 0.86199999 15
6.9879999 -1.7130001 1.043 16
7.5209999 -1.86 1.248 15
5.4190001 -1.332 0.458 15
5.7350001 -1.42 0.57700002 15
6.0840001 -1.518 0.71100003 15
6.5190001 -1.64 0.87 14
7.0229998 -1.783 1.053 17
7.5599999 -1.937 1.26 15
5.4429998 -1.385 0.463 13
5.7610002 -1.477 0.58399999 14
6.1110001 -1.579 0.71899998 15
6.5560002 -1.7079999 0.88 15
7.0580001 -1.855 1.0650001 17
7.6040001 -2.016 1.275 15
5.4699998 -1.439 0.46900001 13
5.777 -1.531 0.58899999 14
6.1409998 -1.64 0.727 16
6.5910001 -1.775 0.88999999 16
7.0929999 -1.928 1.076 17
7.6399999 -2.095 1.288 15
5.4899998 -1.493 0.47499999 13
5.803 -1.589 0.597 16
6.1680002 -1.702 0.736 17
6.605 -1.8380001 0.89700001 15
7.1240001 -1.999 1.087 15
7.6929998 -2.1789999 1.304 14
5.5050001 -1.545 0.47999999 14
5.8200002 -1.645 0.60299999 14
6.211 -1.7690001 0.74599999 14
6.619 -1.901 0.90499997 18
7.165 -2.076 1.1 15
7.7459998 -2.2639999 1.321 15
5.5310001 -1.601 0.48699999 14
5.8540001 -1.707 0.611 14
6.2459998 -1.835 0.75599998 14
6.6669998 -1.974 0.91799998 18
7.2249999 -2.158 1.117 19
7.7979999 -2.3510001 1.3380001 17
5.5560002 -1.6569999 0.493 16
5.8759999 -1.765 0.61799997 17
6.27 -1.898 0.764 16
6.7020001 -2.0450001 0.92900002 17
7.263 -2.2360001 1.13 21
7.8509998 -2.438 1.3559999 19
5.5760002 -1.7130001 0.5 15
5.8940001 -1.824 0.62599999 16
6.2950001 -1.962 0.773 15
6.7379999 -2.1170001 0.94099998 17
7.3080001 -2.316 1.145 19
7.9070001 -2.5280001 1.374 20
5.5910001 -1.767 0.50599998 16
5.9330001 -1.8890001 0.63499999 12
6.3299999 -2.03 0.78399998 16
6.776 -2.1900001 0.95300001 16
7.3509998 -2.3970001 1.16 18
7.9699998 -2.622 1.3940001 16
5.6209998 -1.827 0.51300001 16
5.9749999 -1.956 0.64499998 15
6.3649998 -2.099 0.79400003 15
6.8179998 -2.266 0.96600002 16
7.3930001 -2.4779999 1.175 17
8.0310001 -2.7160001 1.415 17
5.651 -1.887 0.52100003 16
5.9980001 -2.017 0.653 15
6.3959999 -2.168 0.80500001 16
6.8660002 -2.345 0.98100001 16
7.4489999 -2.566 1.192 17
8.099 -2.8150001 1.437 14
5.6729999 -1.946 0.528 16
6.0209999 -2.0799999 0.662 15
6.4289999 -2.237 0.81599998 16
6.908 -2.4230001 0.99400002 16
7.5 -2.652 1.209 17
8.1619997 -2.9130001 1.4579999 14
5.6929998 -2.0039999 0.53600001 16
6.0510001 -2.145 0.671 15
6.4699998 -2.3110001 0.82800001 15
6.9489999 -2.5020001 1.008 15
7.5560002 -2.743 1.227 17
8.2419996 -3.0190001 1.483 14
5.7030001 -2.059 0.542 15
6.085 -2.2130001 0.68099999 15
6.5050001 -2.3829999 0.83899999 15
6.9949999 -2.5829999 1.023 15
7.619 -2.8369999 1.247 14
8.3149996 -3.1229999 1.507 15
0 6.1440001 0 0
0 0 0 0
0 0 0 0
0 0 0 255
5.744 -2.1270001 0.55199999 16
6.1209998 -2.2820001 0.69199997 15
6.54 -2.4560001 0.85100001 16
7.0430002 -2.6659999 1.039 16
7.6859999 -2.934 1.268 15
8.3959999 -3.233 1.533 14
5.7690001 -2.188 0.56 15
6.1529999 -2.3499999 0.70200002 15
6.573 -2.529 0.86299998 16
7.0970001 -2.7520001 1.0549999 16
7.75 -3.0309999 1.288 15
8.4589996 -3.3380001 1.556 14
5.816 -2.2590001 0.57099998 13
6.1799998 -2.4170001 0.71200001 14
6.619 -2.608 0.87699997 15
7.145 -2.8369999 1.071 14
7.8130002 -3.1289999 1.309 15
8.5559998 -3.457 1.586 14
5.8410001 -2.323 0.579 16
6.2179999 -2.49 0.72399998 14
6.6680002 -2.6889999 0.89099997 14
7.1960001 -2.924 1.0880001 15
7.8759999 -3.2279999 1.33 15
8.6230001 -3.5650001 1.6109999 14
5.8639998 -2.3859999 0.588 16
6.2550001 -2.562 0.73500001 16
6.7080002 -2.7679999 0.90499997 15
7.2459998 -3.013 1.105 16
7.9429998 -3.3299999 1.352 15
8.7089996 -3.684 1.6390001 14
5.895 -2.4519999 0.597 16
6.2880001 -2.6340001 0.74599999 15
6.757 -2.8510001 0.92000002 16
7.2989998 -3.1040001 1.122 13
8.0150003 -3.4360001 1.376 15
8.8039999 -3.8080001 1.67 13
5.934 -2.5239999 0.60799998 14
6.3270001 -2.7090001 0.75800002 15
6.796 -2.931 0.93300003 15
7.3649998 -3.201 1.142 13
8.0959997 -3.549 1.401 15
8.8809996 -3.927 1.698 14
5.9590001 -2.5899999 0.61699998 14
6.3629999 -2.7839999 0.76999998 15
6.8509998 -3.0190001 0.949 15
7.4169998 -3.2939999 1.16 14
8.1750002 -3.661 1.426 14
8.9720001 -4.0539999 1.729 14
5.9920001 -2.6589999 0.62699997 14
6.401 -2.8599999 0.78200001 15
6.9029999 -3.1070001 0.96499997 14
7.4920001 -3.3989999 1.182 14
8.2440004 -3.7709999 1.45 14
9.0749998 -4.1880002 1.763 13
6.0190001 -2.7279999 0.63700002 13
6.4349999 -2.9360001 0.79400003 14
6.9510002 -3.194 0.98100001 15
7.5500002 -3.4960001 1.201 15
8.3280001 -3.8889999 1.476 17
9.1689997 -4.3189998 1.794 14
6.0599999 -2.803 0.648 17
6.48 -3.017 0.80699998 17
7.0050001 -3.2839999 0.99699998 15
7.6220002 -3.6010001 1.223 14
8.3970003 -4 1.5 16
9.2489996 -4.4450002 1.824 15
6.092 -2.8740001 0.65799999 18
6.5180001 -3.095 0.81900001 17
7.046 -3.3699999 1.012 16
7.6830001 -3.7030001 1.243 14
8.4870005 -4.125 1.529 16
9.3520002 -4.586 1.858 14
6.1230001 -2.9460001 0.66799998 17
6.5650001 -3.1800001 0.833 16
7.1030002 -3.4649999 1.029 15
7.7589998 -3.8139999 1.266 15
8.5690002 -4.2470002 1.556 15
9.4630003 -4.7319999 1.895 14
6.1560001 -3.02 0.67900002 17
6.6069999 -3.2609999 0.84600002 17
7.1539998 -3.5569999 1.046 14
7.8200002 -3.918 1.286 16
8.6490002 -4.369 1.5829999 15
9.5620003 -4.8730001 1.929 15
6.1849999 -3.0910001 0.68900001 16
6.6469998 -3.3429999 0.86000001 16
7.2020001 -3.648 1.062 14
7.895 -4.0300002 1.309 15
8.7200003 -4.4879999 1.608 16
9.6680002 -5.0190001 1.966 13
6.2220001 -3.1670001 0.699 17
6.6939998 -3.4289999 0.87300003 16
7.2600002 -3.7449999 1.079 14
7.9559999 -4.1360002 1.33 16
8.7959995 -4.6100001 1.6339999 15
9.7860003 -5.1729999 2.0039999 12
0 6.1440001 0 0
0 0 0 0
0 0 0 0
0 0 0 255
6.2550001 -3.2409999 0.70999998 16
6.743 -3.516 0.88700002 15
7.3210001 -3.8440001 1.098 14
8.0270004 -4.2470002 1.352 15
8.8780003 -4.7360001 1.6619999 15
9.8739996 -5.3140001 2.036 9
6.2789998 -3.3110001 0.72000003 16
6.7849998 -3.6010001 0.90100002 15
7.3779998 -3.9430001 1.115 14
8.0930004 -4.3579998 1.374 14
8.9619999 -4.8660002 1.691 15
9.9879999 -5.4699998 2.075 10
6.3169999 -3.3889999 0.73000002 16
6.823 -3.684 0.91299999 14
7.4310002 -4.04 1.132 14
8.1529999 -4.4660001 1.395 16
9.0340004 -4.9889998 1.717 14
10.093 -5.6230001 2.112 11
6.3530002 -3.4660001 0.741 15
6.875 -3.7750001 0.92799997 14
7.4920001 -4.1430001 1.15 14
8.2320004 -4.586 1.418 15
9.1309996 -5.1279998 1.747 15
10.203 -5.7800002 2.1489999 11
6.3959999 -3.5480001 0.75300002 13
6.914 -3.859 0.94099998 15
7.5469999 -4.2420001 1.168 15
8.2969999 -4.698 1.4400001 14
9.217 -5.2610002 1.776 13
10.327 -5.9460001 2.1900001 11
6.4330001 -3.6270001 0.764 15
6.9549999 -3.9460001 0.954 15
7.6090002 -4.3460002 1.186 15
8.3800001 -4.822 1.465 15
9.2889996 -5.388 1.802 13
10.427 -6.1009998 2.2260001 12
6.4699998 -3.7060001 0.77399999 15
7.0029998 -4.0349998 0.96799999 15
7.6690001 -4.4489999 1.204 14
8.441 -4.934 1.4859999 14
9.382 -5.5279999 1.832 12
10.549 -6.27 2.267 12
6.5050001 -3.7839999 0.78500003 15
7.053 -4.1279998 0.98199999 15
7.7220001 -4.5500002 1.22 14
8.5050001 -5.0479999 1.507 14
9.4700003 -5.6659999 1.8609999 12
10.674 -6.4419999 2.3069999 12
6.5419998 -3.8629999 0.796 15
7.099 -4.2179999 0.99599999 14
7.7800002 -4.6539998 1.238 14
8.5699997 -5.164 1.528 13
9.5570002 -5.8039999 1.89 11
10.793 -6.6110001 2.3469999 13
6.579 -3.9430001 0.80599999 15
7.1440001 -4.3080001 1.0089999 15
7.8299999 -4.7529998 1.2539999 14
8.6379995 -5.2810001 1.55 12
9.6350002 -5.9369998 1.916 11
10.914 -6.7820001 2.3870001 13
6.6090002 -4.0180001 0.815 13
7.1890001 -4.3969998 1.021 15
7.8730001 -4.8470001 1.2690001 14
8.6850004 -5.3850002 1.567 13
9.7229996 -6.0760002 1.9450001 10
11.056 -6.967 2.431 14
6.6370001 -4.092 0.824 13
7.2189999 -4.4770002 1.0319999 15
7.9369998 -4.954 1.2869999 13
8.7519999 -5.5009999 1.5880001 13
9.8050003 -6.2119999 1.972 13
11.199 -7.1550002 2.4760001 16
6.6719999 -4.1700001 0.833 14
7.2709999 -4.5700002 1.046 16
7.9710002 -5.0430002 1.299 15
8.8050003 -5.6090002 1.6059999 13
9.9040003 -6.3579998 2.0020001 13
11.283 -7.303 2.507 16
6.711 -4.25 0.84299999 15
7.3099999 -4.6550002 1.057 16
8.0290003 -5.145 1.3150001 15
8.875 -5.7270002 1.627 13
9.9870005 -6.494 2.0280001 11
11.383 -7.4619999 2.5409999 16
6.7420001 -4.323 0.85100001 16
7.3460002 -4.737 1.068 16
8.0710001 -5.237 1.329 16
8.9130001 -5.823 1.642 12
10.104 -6.651 2.062 14
11.45 -7.598 2.5669999 17
6.7709999 -4.3959999 0.86000001 16
7.3889999 -4.8239999 1.079 16
8.1099997 -5.3270001 1.341 14
8.9560003 -5.9219999 1.6569999 11
10.148 -6.7600002 2.079 14
11.512 -7.7309999 2.592 16
0 6.1440001 0 0
0 0 0 0
0 0 0 0
0 0 0 255
6.7969999 -4.4650002 0.86699998 17
7.4250002 -4.9039998 1.089 17
8.1560001 -5.4190001 1.354 16
9.0089998 -6.026 1.673 11
10.203 -6.875 2.099 14
11.587 -7.8699999 2.618 17
6.829 -4.5380001 0.87400001 16
7.461 -4.9850001 1.099 15
8.1829996 -5.4990001 1.364 15
9.0690002 -6.1339998 1.691 12
10.249 -6.9819999 2.1159999 15
11.62 -7.9790001 2.635 16
6.8600001 -4.6090002 0.88200003 15
7.4899998 -5.059 1.107 14
8.2220001 -5.585 1.375 14
9.1450005 -6.2529998 1.71 15
10.289 -7.085 2.131 15
11.662 -8.0930004 2.6530001 18
6.8839998 -4.6750002 0.88800001 15
7.5219998 -5.1339998 1.115 15
8.2600002 -5.6700001 1.386 14
9.1660004 -6.3309999 1.719 15
10.336 -7.1890001 2.1470001 15
11.714 -8.21 2.6730001 17
6.9050002 -4.737 0.89300001 16
7.546 -5.2010002 1.122 15
8.3000002 -5.7529998 1.396 14
9.1929998 -6.4109998 1.729 15
10.369 -7.2810001 2.1589999 15
11.741 -8.3070002 2.6849999 18
6.927 -4.7979999 0.898 16
7.572 -5.2690001 1.128 15
8.3380003 -5.8330002 1.405 14
9.2010002 -6.4759998 1.734 13
10.388 -7.3610001 2.168 15
11.783 -8.4119997 2.701 18
6.947 -4.855 0.90200001 16
7.5879998 -5.3280001 1.132 15
8.3719997 -5.9099998 1.414 16
9.2060003 -6.5370002 1.738 13
10.416 -7.4450002 2.177 15
11.809 -8.5030003 2.711 19
6.9629998 -4.9089999 0.90499997 15
7.6290002 -5.4029999 1.14 14
8.3850002 -5.9689999 1.418 17
9.2340002 -6.6110001 1.7460001 13
10.42 -7.5079999 2.181 16
11.849 -8.599 2.724 19
6.9809999 -4.9629998 0.90799999 16
7.6490002 -5.461 1.1440001 14
8.3909998 -6.02 1.42 18
9.2390003 -6.6659999 1.749 13
10.44 -7.5809999 2.188 16
11.847 -8.6619997 2.727 19
6.9860001 -5.0050001 0.90899998 15
7.6739998 -5.52 1.148 13
8.3999996 -6.0710001 1.423 18
9.2360001 -6.7119999 1.749 13
10.448 -7.6399999 2.191 16
11.833 -8.7110004 2.7249999 19
7.0040002 -5.0539999 0.912 14
7.6950002 -5.5749998 1.152 16
8.4049997 -6.1170001 1.424 17
9.2480001 -6.7670002 1.752 13
10.447 -7.6890001 2.191 16
11.835 -8.7690001 2.727 17
7.007 -5.0910001 0.912 14
7.7020001 -5.6160002 1.152 16
8.3990002 -6.152 1.4220001 17
9.2419996 -6.8039999 1.75 13
10.432 -7.724 2.188 16
11.831 -8.8179998 2.7260001 19
7.0250001 -5.1350002 0.91299999 14
7.6999998 -5.6490002 1.151 16
8.3970003 -6.1869998 1.421 17
9.2340002 -6.8369999 1.748 13
10.42 -7.7579999 2.184 16
11.814 -8.8509998 2.721 19
7.027 -5.1659999 0.91100001 15
7.7069998 -5.6849999 1.15 16
8.3859997 -6.211 1.4170001 18
9.2250004 -6.8649998 1.745 13
10.413 -7.7909999 2.181 16
11.802 -8.8839998 2.7149999 21
7.0240002 -5.191 0.90899998 16
7.7030001 -5.71 1.147 18
8.3830004 -6.2379999 1.415 20
9.21 -6.8850002 1.739 14
10.382 -7.8010001 2.1719999 18
11.764 -8.8920002 2.704 21
7.0250001 -5.2150002 0.90700001 17
7.7010002 -5.7340002 1.145 19
8.375 -6.2589998 1.411 20
9.2019997 -6.9060001 1.735 14
10.358 -7.8130002 2.1630001 17
11.745 -8.9090004 2.6960001 20
0 6.1440001 0 0
0 0 0 0
0 0 0 0
0 0 0 255
7.0250001 -5.2360001 0.90399998 15
7.6820002 -5.7410002 1.1390001 18
8.349 -6.2610002 1.403 18
9.1730003 -6.9070001 1.725 14
10.321 -7.809 2.152 17
11.701 -8.9020004 2.681 18
7.0229998 -5.2509999 0.90100002 15
7.6690001 -5.75 1.133 18
8.3389997 -6.2719998 1.398 18
9.1639996 -6.9200001 1.719 16
10.296 -7.8099999 2.141 17
11.634 -8.8719997 2.6589999 17
7.0100002 -5.257 0.89600003 16
7.6430001 -5.7449999 1.126 18
8.3149996 -6.27 1.3890001 20
9.125 -6.9060001 1.707 16
10.253 -7.7930002 2.1270001 17
11.59 -8.8540001 2.6429999 16
7 -5.2610002 0.89099997 15
7.6259999 -5.744 1.119 18
8.2910004 -6.263 1.38 19
9.1020002 -6.8990002 1.698 17
10.218 -7.777 2.112 17
11.539 -8.8249998 2.6229999 16
6.9949999 -5.2659998 0.88599998 17
7.605 -5.737 1.1109999 19
8.2659998 -6.2519999 1.3710001 19
9.0790005 -6.8889999 1.687 16
10.175 -7.7509999 2.0969999 16
11.481 -8.7860003 2.602 16
6.973 -5.256 0.87800002 16
7.5760002 -5.7199998 1.102 18
8.243 -6.2389998 1.362 19
9.0299997 -6.855 1.6720001 14
10.113 -7.7049999 2.076 17
11.415 -8.7360001 2.5780001 15
6.9530001 -5.244 0.87099999 16
7.5469999 -5.6999998 1.092 18
8.2040005 -6.21 1.349 19
9.0159998 -6.8429999 1.6619999 16
10.067 -7.6669998 2.059 14
11.354 -8.684 2.5550001 17
6.9330001 -5.2280002 0.86299998 16
7.5339999 -5.6880002 1.085 18
8.1780005 -6.1869998 1.3380001 19
8.9860001 -6.816 1.649 18
10.015 -7.6209998 2.04 17
11.303 -8.6339998 2.533 17
6.8930001 -5.1950002 0.852 16
7.5100002 -5.665 1.075 19
8.1440001 -6.1539998 1.326 20
8.9449997 -6.776 1.6339999 21
9.9650002 -7.5710001 2.02 16
11.225 -8.5600004 2.5050001 19
6.8509998 -5.1570001 0.84200001 16
7.4840002 -5.638 1.0650001 19
8.099 -6.1100001 1.311 20
8.9180002 -6.743 1.62 21
9.9130001 -7.5149999 2.0009999 16
11.153 -8.4840002 2.477 16
6.8169999 -5.1220002 0.83200002 15
7.4660001 -5.6129999 1.056 18
8.0719995 -6.0770001 1.3 20
8.8760004 -6.6939998 1.604 21
9.8500004 -7.447 1.977 15
11.104 -8.4219999 2.454 18
6.7859998 -5.0869999 0.82200003 15
7.4260001 -5.5689998 1.043 19
8.0349998 -6.0310001 1.286 21
8.8360004 -6.6430001 1.5880001 18
9.7969999 -7.3829999 1.957 16
11.03 -8.3369999 2.4260001 15
6.7529998 -5.0479999 0.81199998 16
7.4109998 -5.54 1.035 18
8.0010004 -5.9850001 1.272 19
8.7919998 -6.586 1.572 20
9.7390003 -7.3109999 1.9349999 15
10.969 -8.257 2.401 15
6.717 -5.0029998 0.80199999 16
7.3759999 -5.493 1.023 17
7.9749999 -5.9429998 1.261 19
8.7309999 -6.513 1.552 20
9.6879997 -7.2399998 1.915 15
10.894 -8.1619997 2.3710001 17
6.6799998 -4.954 0.792 16
7.3340001 -5.4380002 1.01 17
7.9419999 -5.8909998 1.248 20
8.7010002 -6.46 1.5369999 20
9.6379995 -7.1669998 1.8940001 15
10.835 -8.0760002 2.346 15
6.638 -4.901 0.77999997 17
7.2659998 -5.3610001 0.99299997 16
7.9130001 -5.8390002 1.235 19
8.6440001 -6.3829999 1.518 19
9.5900002 -7.092 1.874 13
10.757 -7.9710002 2.316 14
0 6.1440001 0 0
0 0 0 0
0 0 0 0
0 0 0 255
6.599 -4.8460002 0.76999998 18
7.2150002 -5.2950001 0.97899997 17
7.8790002 -5.7810001 1.222 17
8.599 -6.3130002 1.501 17
9.533 -7.007 1.852 13
10.68 -7.8649998 2.2869999 15
6.5549998 -4.7859998 0.75800002 17
7.165 -5.2270002 0.96499997 14
7.849 -5.724 1.209 17
8.5690002 -6.2509999 1.4859999 17
9.467 -6.9130001 1.8279999 13
10.607 -7.757 2.2590001 15
6.527 -4.7350001 0.74900001 18
7.0999999 -5.145 0.94999999 15
7.7950001 -5.6469998 1.193 17
8.5080004 -6.164 1.467 19
9.4130001 -6.8239999 1.807 12
10.518 -7.6350002 2.2260001 14
6.4840002 -4.6729999 0.73799998 19
7.0570002 -5.079 0.93800002 15
7.744 -5.5689998 1.177 14
8.4639997 -6.086 1.45 19
9.3559999 -6.7309999 1.785 13
10.439 -7.5180001 2.198 14
6.4520001 -4.6149998 0.72899997 19
7.0139999 -5.0089998 0.92500001 15
7.6750002 -5.4759998 1.159 14
8.4259996 -6.0100002 1.4349999 18
9.29 -6.6290002 1.762 13
10.379 -7.4130001 2.1719999 14
6.4260001 -4.5599999 0.72000003 19
6.9759998 -4.9419999 0.91299999 16
7.618 -5.3899999 1.143 15
8.375 -5.9229999 1.4170001 17
9.2259998 -6.5250001 1.74 13
10.289 -7.283 2.141 13
6.3990002 -4.5019999 0.71200001 22
6.9369998 -4.8720002 0.90200001 16
7.5640001 -5.3049998 1.127 15
8.3210001 -5.8319998 1.399 14
9.1789999 -6.4330001 1.721 14
10.217 -7.164 2.1140001 13
6.362 -4.4369998 0.70200002 22
6.8979998 -4.8010001 0.88999999 17
7.5110002 -5.2199998 1.112 16
8.2440004 -5.724 1.377 15
9.1280003 -6.336 1.701 16
10.143 -7.0419998 2.0869999 13
6.3340001 -4.3759999 0.69300002 25
6.8569999 -4.7259998 0.87900001 17
7.4710002 -5.1409998 1.099 16
8.1829996 -5.625 1.359 15
9.0790005 -6.2379999 1.682 17
10.087 -6.9320002 2.0639999 12
6.3109999 -4.3169999 0.68599999 24
6.8179998 -4.652 0.86799997 16
7.4200001 -5.0539999 1.085 16
8.1350002 -5.5339999 1.3430001 15
9.0019999 -6.1199999 1.659 12
10.024 -6.8140001 2.04 14
6.2800002 -4.2509999 0.67799997 24
6.7810001 -4.5780001 0.85799998 17
7.3779998 -4.9720001 1.072 16
8.0869999 -5.441 1.3279999 16
8.9230003 -5.9990001 1.635 13
9.9569998 -6.6919999 2.016 13
6.2470002 -4.1830001 0.67000002 22
6.7399998 -4.5 0.84799999 17
7.3309999 -4.8839998 1.059 16
8.0509996 -5.355 1.3150001 16
8.8640003 -5.8899999 1.615 14
9.8999996 -6.5760002 1.993 15
6.2249999 -4.1209998 0.66299999 20
6.7059999 -4.427 0.838 17
7.2909999 -4.8010001 1.0470001 15
7.993 -5.2540002 1.298 15
8.8100004 -5.7849998 1.597 15
9.7790003 -6.4169998 1.959 11
6.1989999 -4.0549998 0.65600002 19
6.6750002 -4.3540001 0.82999998 16
7.2509999 -4.7179999 1.036 16
7.9310002 -5.151 1.281 16
8.7559996 -5.678 1.579 16
9.6879997 -6.2779999 1.931 11
6.1760001 -3.9920001 0.64999998 17
6.6479998 -4.2820001 0.82200003 16
7.2069998 -4.6300001 1.024 16
7.882 -5.0539999 1.267 16
8.6899996 -5.5630002 1.5599999 13
9.6149998 -6.1500001 1.908 10
6.145 -3.9200001 0.64300001 18
6.6160002 -4.2069998 0.81300002 16
7.1729999 -4.5479999 1.0140001 17
7.8460002 -4.9640002 1.255 16
8.6529999 -5.4650002 1.545 15
9.5539999 -6.0279999 1.887 10
0 6.1440001 0 0
0 0 0 0
0 0 0 0
0 0 0 255
6.125 -3.8559999 0.63700002 17
6.586 -4.132 0.80599999 15
7.1420002 -4.4679999 1.005 17
7.8080001 -4.8730001 1.243 16
8.6000004 -5.3579998 1.529 15
9.4729996 -5.8940001 1.863 10
6.1040001 -3.7909999 0.63200003 17
6.5630002 -4.0609999 0.79900002 16
7.105 -4.3829999 0.995 18
7.7680001 -4.7800002 1.2309999 17
8.5509996 -5.2519999 1.5140001 16
9.4169998 -5.776 1.8430001 11
6.086 -3.727 0.62699997 17
6.539 -3.99 0.79299998 16
7.0770001 -4.3039999 0.98699999 15
7.723 -4.684 1.219 14
8.5019999 -5.1459999 1.499 13
9.3559999 -5.6550002 1.824 11
6.0650001 -3.661 0.62300003 17
6.5149999 -3.9170001 0.787 16
7.0479999 -4.224 0.97899997 14
7.6989999 -4.6009998 1.21 15
8.4630003 -5.046 1.4859999 13
9.3070002 -5.5409999 1.807 12
6.0549998 -3.6010001 0.61900002 16
6.493 -3.845 0.78100002 16
7.0139999 -4.1399999 0.97000003 15
7.6490002 -4.5019999 1.198 14
8.4099998 -4.9369998 1.471 13
9.2469997 -5.4190001 1.789 12
6.0370002 -3.5339999 0.61500001 17
6.474 -3.7750001 0.77600002 16
6.9840002 -4.0580001 0.963 15
7.6170001 -4.4130001 1.189 15
8.3839998 -4.8449998 1.462 14
9.1759996 -5.2930002 1.7690001 12
6.0190001 -3.4690001 0.61199999 17
6.4530001 -3.704 0.77100003 15
6.961 -3.98 0.95700002 14
7.5760002 -4.3189998 1.179 15
8.342 -4.744 1.45 14
9.1409998 -5.1869998 1.757 12
6.0079999 -3.408 0.60900003 17
6.4310002 -3.631 0.76599997 16
6.9239998 -3.895 0.949 15
7.5489998 -4.2340002 1.171 16
8.3109999 -4.6479998 1.4400001 14
9.085 -5.0700002 1.74 13
5.9990001 -3.346 0.60699999 17
6.4190001 -3.5650001 0.76300001 15
6.9130001 -3.8239999 0.94499999 15
7.5229998 -4.1479998 1.164 15
8.2609997 -4.5419998 1.428 14
9.0539999 -4.967 1.729 13
5.9850001 -3.2820001 0.60399997 18
6.3979998 -3.493 0.759 16
6.8899999 -3.7460001 0.94 15
7.487 -4.0570002 1.155 15
8.2370005 -4.4510002 1.42 13
9.0170002 -4.8600001 1.7180001 12
5.9790001 -3.223 0.60299999 17
6.381 -3.4230001 0.755 16
6.8670001 -3.6700001 0.935 15
7.4619999 -3.973 1.149 15
8.2060003 -4.3569999 1.411 15
8.9940004 -4.7620001 1.709 13
5.9720001 -3.1619999 0.60100001 18
6.3670001 -3.355 0.75300002 17
6.8559999 -3.598 0.93199998 16
7.4390001 -3.8900001 1.143 15
8.1850004 -4.2659998 1.404 15
8.9350004 -4.6459999 1.694 13
5.9619999 -3.0999999 0.60000002 17
6.3559999 -3.289 0.75 16
6.849 -3.5280001 0.92900002 15
7.4169998 -3.8069999 1.138 15
8.1499996 -4.1700001 1.396 14
8.9099998 -4.5469999 1.686 13
5.9580002 -3.04 0.59899998 19
6.348 -3.224 0.74900001 16
6.8319998 -3.454 0.926 14
7.3959999 -3.7249999 1.133 14
8.1120005 -4.072 1.387 14
8.8789997 -4.4450002 1.677 13
5.941 -2.9749999 0.597 18
6.3379998 -3.158 0.74800003 19
6.816 -3.381 0.92299998 16
7.3779998 -3.6459999 1.1289999 14
8.092 -3.9849999 1.381 14
8.8500004 -4.3460002 1.669 13
5.9439998 -2.9189999 0.59799999 19
6.3260002 -3.0910001 0.74599999 19
6.8039999 -3.3099999 0.921 18
7.3590002 -3.5650001 1.125 15
8.0780001 -3.9000001 1.378 15
8.8240004 -4.2480001 1.6619999 13
0 6.1440001 0 0
0 0 0 0
0 0 0 0
0 0 0 255
5.9369998 -2.859 0.597 21
6.329 -3.0320001 0.74599999 19
6.7950001 -3.24 0.91900003 18
7.3330002 -3.483 1.12 16
8.0430002 -3.806 1.37 15
8.7959995 -4.1500001 1.654 13
5.9349999 -2.8 0.597 17
6.3189998 -2.967 0.745 18
6.783 -3.1700001 0.917 18
7.3239999 -3.408 1.118 16
8.0270004 -3.721 1.3660001 16
8.7720003 -4.053 1.648 14
5.934 -2.7420001 0.59799999 18
6.3150001 -2.9030001 0.745 19
6.7750001 -3.0999999 0.91600001 18
7.3070002 -3.329 1.115 17
8.007 -3.635 1.362 16
8.7650003 -3.9660001 1.645 15
5.9260001 -2.6819999 0.59799999 17
6.3060002 -2.8380001 0.74400002 19
6.7620001 -3.029 0.91500002 19
7.2930002 -3.2520001 1.112 16
7.9860001 -3.5480001 1.357 16
8.7309999 -3.8659999 1.637 14
5.927 -2.6240001 0.59899998 20
6.303 -2.776 0.74400002 19
6.7610002 -2.9630001 0.91500002 19
7.2839999 -3.178 1.1109999 14
7.967 -3.4619999 1.353 13
8.7040005 -3.7690001 1.631 12
5.9239998 -2.5650001 0.60000002 19
6.2979999 -2.7119999 0.745 17
6.7459998 -2.891 0.91299999 17
7.2620001 -3.098 1.108 14
7.947 -3.3770001 1.35 14
8.684 -3.677 1.626 12
5.9180002 -2.506 0.60100001 19
6.289 -2.648 0.745 16
6.7329998 -2.8210001 0.912 17
7.2540002 -3.0250001 1.107 15
7.927 -3.2920001 1.346 13
8.6639996 -3.585 1.622 12
5.9130001 -2.447 0.602 17
6.289 -2.5880001 0.74599999 17
6.7280002 -2.7539999 0.912 16
7.2529998 -2.9549999 1.107 15
7.9229999 -3.214 1.346 13
8.6440001 -3.494 1.618 12
5.9099998 -2.3889999 0.60299999 19
6.2909999 -2.527 0.74699998 17
6.723 -2.687 0.912 16
7.2410002 -2.8800001 1.1059999 13
7.9060001 -3.131 1.3430001 14
8.6409998 -3.4089999 1.617 13
5.9060001 -2.329 0.60399997 17
6.2870002 -2.4649999 0.74800003 16
6.7129998 -2.618 0.912 17
7.2259998 -2.8050001 1.104 16
7.8969998 -3.052 1.342 14
8.6140003 -3.316 1.612 12
5.9089999 -2.2739999 0.60500002 18
6.2839999 -2.404 0.74900001 17
6.71 -2.553 0.91299999 16
7.2309999 -2.737 1.1059999 16
7.8769999 -2.9679999 1.339 14
8.5979996 -3.227 1.609 13
5.9089999 -2.217 0.60699999 17
6.283 -2.3429999 0.75 16
6.711 -2.4890001 0.91399997 18
7.2220001 -2.665 1.105 15
7.8730001 -2.892 1.339 13
8.6020002 -3.1459999 1.61 13
5.9159999 -2.1619999 0.61000001 18
6.277 -2.28 0.75099999 16
6.7030001 -2.4219999 0.91399997 16
7.223 -2.596 1.107 16
7.8639998 -2.813 1.3380001 15
8.5799999 -3.0569999 1.607 12
5.9109998 -2.105 0.611 18
6.2820001 -2.223 0.75400001 17
6.704 -2.359 0.91600001 17
7.2129998 -2.5239999 1.1059999 16
7.8530002 -2.7349999 1.337 13
8.5719995 -2.9719999 1.605 13
5.9109998 -2.0480001 0.61299998 17
6.2820001 -2.1630001 0.755 16
6.6999998 -2.293 0.917 16
7.2080002 -2.454 1.107 16
7.8590002 -2.6630001 1.339 15
8.5559998 -2.8859999 1.603 13
5.914 -1.993 0.61500001 17
6.2800002 -2.1029999 0.75700003 16
6.6999998 -2.23 0.91799998 16
7.21 -2.3859999 1.109 15
7.8410001 -2.5829999 1.337 14
8.5459995 -2.802 1.602 13
0 6.1440001 0 0
0 0 0 0
0 0 0 0
0 0 0 255
5.914 -1.937 0.61699998 17
6.277 -2.043 0.75800002 16
6.6929998 -2.165 0.91900003 15
7.21 -2.319 1.11 16
7.835 -2.5079999 1.3380001 18
8.5340004 -2.7179999 1.601 14
5.8969998 -1.876 0.61699998 15
6.276 -1.983 0.75999999 16
6.6960001 -2.1029999 0.921 17
7.1939998 -2.2460001 1.109 16
7.8249998 -2.431 1.337 16
8.5310001 -2.6370001 1.601 13
5.9130001 -1.825 0.62099999 18
6.2859998 -1.928 0.76300001 17
6.7010002 -2.0420001 0.92299998 17
7.1960001 -2.1800001 1.1109999 18
7.822 -2.3570001 1.3380001 15
8.5209999 -2.5550001 1.601 13
5.9099998 -1.7690001 0.62300003 17
6.2859998 -1.869 0.76499999 17
6.697 -1.978 0.92500001 17
7.1989999 -2.1129999 1.113 16
7.816 -2.2820001 1.3380001 16
8.5109997 -2.4719999 1.6 13
5.9239998 -1.7180001 0.62599999 18
0 0 0 0
6.698 -1.916 0.92699999 18
7.1939998 -2.0450001 1.114 16
7.809 -2.207 1.3380001 17
8.4969997 -2.3889999 1.599 13
5.9130001 -1.659 0.62699997 18
6.2940001 -1.753 0.76999998 17
6.7010002 -1.854 0.92900002 18
7.1859999 -1.976 1.114 17
7.7989998 -2.132 1.3380001 16
8.4960003 -2.3099999 1.599 15
5.9120002 -1.604 0.62900001 18
6.2680001 -1.688 0.76800001 18
6.6989999 -1.7920001 0.93000001 18
7.184 -1.909 1.115 15
7.8140001 -2.0639999 1.342 14
8.4910002 -2.2309999 1.6 11
5.9239998 -1.552 0.63300002 15
6.2789998 -1.633 0.77200001 16
6.6999998 -1.73 0.93199998 15
7.1830001 -1.842 1.117 16
7.8109999 -1.9910001 1.3430001 15
8.4949999 -2.152 1.602 11
5.9219999 -1.4960001 0.634 16
6.2880001 -1.577 0.77499998 17
6.7010002 -1.668 0.93400002 15
7.1890001 -1.777 1.12 16
7.8080001 -1.919 1.344 14
8.4870005 -2.072 1.602 11
5.9310002 -1.444 0.63700002 16
6.2740002 -1.516 0.77499998 17
6.7030001 -1.607 0.93599999 16
7.1849999 -1.711 1.1210001 14
7.8010001 -1.845 1.345 13
8.4879999 -1.995 1.603 11
5.921 -1.387 0.63800001 16
6.2870002 -1.461 0.778 17
6.7020001 -1.546 0.93800002 15
7.1869998 -1.646 1.123 15
7.8000002 -1.774 1.346 13
8.4890003 -1.918 1.605 11
5.9219999 -1.3329999 0.63999999 18
6.2919998 -1.405 0.78100002 16
6.7069998 -1.485 0.94 16
7.1869998 -1.58 1.124 14
7.8080001 -1.705 1.349 13
8.4980001 -1.842 1.608 11
5.9310002 -1.281 0.64300001 16
6.2849998 -1.346 0.78200001 17
6.6999998 -1.423 0.94099998 15
7.1900001 -1.515 1.126 15
7.8169999 -1.636 1.352 14
8.4890003 -1.7640001 1.608 11
5.927 -1.226 0.64499998 15
6.2870002 -1.289 0.78399998 16
6.7059999 -1.364 0.94400001 15
7.204 -1.4529999 1.13 15
7.816 -1.5650001 1.353 14
8.4779997 -1.6849999 1.607 11
5.927 -1.1720001 0.64600003 15
6.289 -1.232 0.78600001 18
6.7080002 -1.303 0.94499999 14
7.2090001 -1.3890001 1.132 15
7.8130002 -1.494 1.354 15
8.467 -1.607 1.6059999 11
5.9219999 -1.118 0.648 15
6.2839999 -1.175 0.787 17
6.7280002 -1.247 0.94999999 16
7.2049999 -1.324 1.133 14
7.809 -1.424 1.355 16
8.4809999 -1.534 1.61 13
0 6.1440001 0 0
0 0 0 0
0 0 0 0
0 0 0 255
5.9180002 -1.0650001 0.64899999 15
0 0 0 0
6.7069998 -1.184 0.94800001 15
7.2030001 -1.26 1.135 15
7.8080001 -1.354 1.3559999 15
8.4840002 -1.46 1.612 21
5.9250002 -1.013 0.65100002 15
6.289 -1.0650001 0.79100001 16
6.7140002 -1.126 0.95099998 15
7.1999998 -1.196 1.135 16
7.8070002 -1.285 1.357 15
8.4829998 -1.3839999 1.613 20
5.9310002 -0.96100003 0.65399998 15
6.2930002 -1.0089999 0.79299998 16
6.7090001 -1.0650001 0.95200002 15
7.1939998 -1.131 1.136 16
7.8010001 -1.215 1.358 16
8.4659996 -1.306 1.6109999 16
5.927 -0.90799999 0.65499997 15
6.2789998 -0.95099998 0.79299998 16
6.7129998 -1.006 0.954 15
7.198 -1.068 1.138 16
7.8010001 -1.146 1.359 14
8.4530001 -1.23 1.61 13
5.9369998 -0.85600001 0.65700001 15
6.2870002 -0.89700001 0.79500002 16
6.6849999 -0.94300002 0.95099998 18
7.1880002 -1.003 1.138 16
7.7940001 -1.077 1.359 15
8.4510002 -1.156 1.6109999 15
5.9250002 -0.80199999 0.65700001 15
6.283 -0.84100002 0.796 17
6.71 -0.88800001 0.95599997 15
7.1950002 -0.94099998 1.14 16
7.7909999 -1.007 1.36 15
8.4469995 -1.081 1.6109999 14
5.9299998 -0.75099999 0.65899998 16
6.277 -0.78500003 0.796 18
6.6799998 -0.82499999 0.95300001 17
7.184 -0.87599999 1.1390001 16
7.7969999 -0.94 1.362 15
8.4429998 -1.006 1.612 15
5.9239998 -0.69800001 0.66000003 15
6.2870002 -0.73100001 0.79900002 18
6.7020001 -0.76999998 0.95700002 15
7.1820002 -0.81400001 1.14 16
7.7880001 -0.87199998 1.362 16
8.4289999 -0.93199998 1.61 15
5.921 -0.64600003 0.66100001 16
6.2779999 -0.67500001 0.79900002 18
6.6989999 -0.71100003 0.958 22
7.1869998 -0.75199997 1.142 15
7.7810001 -0.80400002 1.362 16
8.4320002 -0.85900003 1.612 15
5.9089999 -0.59299999 0.66100001 18
6.2779999 -0.62099999 0.80000001 17
6.678 -0.65100002 0.95599997 36
7.1750002 -0.68900001 1.141 16
7.7859998 -0.73699999 1.363 16
8.4259996 -0.78600001 1.612 14
5.921 -0.54299998 0.66299999 15
6.2729998 -0.56699997 0.80000001 17
6.6830001 -0.59399998 0.958 35
7.1680002 -0.62699997 1.141 15
7.7740002 -0.66900003 1.362 16
8.415 -0.71200001 1.6109999 14
5.9190001 -0.49200001 0.66399997 17
6.2779999 -0.51300001 0.80199999 38
6.671 -0.53500003 0.95700002 23
7.165 -0.56400001 1.142 16
7.7670002 -0.60100001 1.362 16
8.4209995 -0.63999999 1.613 15
5.915 -0.44100001 0.66399997 16
6.2550001 -0.45699999 0.80000001 43
6.665 -0.477 0.95700002 17
7.1690001 -0.50300002 1.143 16
7.7690001 -0.53399998 1.363 17
8.4119997 -0.56699997 1.612 14
5.9239998 -0.38999999 0.66600001 19
6.2579999 -0.403 0.801 43
6.664 -0.419 0.958 17
7.165 -0.44100001 1.1440001 16
7.7670002 -0.46700001 1.364 16
8.4060001 -0.495 1.612 15
5.9050002 -0.338 0.66500002 40
6.2540002 -0.34900001 0.801 21
6.6630001 -0.36199999 0.95899999 17
7.1630001 -0.37900001 1.1440001 16
7.7610002 -0.40000001 1.364 16
8.3950005 -0.42199999 1.61 15
5.902 -0.287 0.66500002 39
6.2589998 -0.29499999 0.80299997 17
6.6890001 -0.30599999 0.963 15
7.1620002 -0.31799999 1.145 17
7.757 -0.33399999 1.364 16
8.3940001 -0.34999999 1.6109999 14
0 6.1440001 0 0
0 0 0 0
0 0 0 0
0 0 0 255
5.8920002 -0.236 0.66500002 38
6.256 -0.242 0.80299997 17
6.6609998 -0.248 0.95999998 17
7.1539998 -0.257 1.1440001 16
7.7509999 -0.26699999 1.364 16
8.3889999 -0.278 1.6109999 13
5.8930001 -0.186 0.66600001 19
6.2550001 -0.18799999 0.80400002 19
6.6609998 -0.191 0.96100003 18
7.1490002 -0.19599999 1.1440001 15
7.7449999 -0.20100001 1.363 16
8.3850002 -0.207 1.6109999 15
5.8979998 -0.13500001 0.667 17
6.2600002 -0.13500001 0.80500001 18
6.652 -0.13500001 0.95999998 18
7.1370001 -0.13500001 1.143 16
7.7259998 -0.13600001 1.3609999 15
8.3859997 -0.13600001 1.612 15
5.8969998 -0.085000001 0.667 18
6.2509999 -0.082000002 0.80500001 18
6.6469998 -0.078000002 0.95999998 17
7.132 -0.075000003 1.143 15
7.7259998 -0.071000002 1.3609999 15
8.3780003 -0.066 1.6109999 15
5.8959999 -0.035999998 0.66799998 17
6.2509999 -0.029999999 0.80500001 18
6.671 -0.023 0.96399999 15
7.138 -0.015 1.1440001 16
7.7259998 -0.0060000001 1.362 15
8.3800001 0.003 1.612 15
5.8930001 0.013 0.66799998 18
6.2519999 0.022 0.80599999 18
6.6420002 0.032000002 0.95999998 17
7.1360002 0.043000001 1.145 16
7.7270002 0.057 1.363 15
8.3800001 0.072999999 1.613 15
5.881 0.061999999 0.667 19
6.2420001 0.074000001 0.80500001 18
6.6430001 0.088 0.96100003 18
7.1300001 0.104 1.1440001 16
7.7290001 0.122 1.364 15
8.3660002 0.14399999 1.6109999 14
5.8839998 0.112 0.66799998 18
6.2420001 0.127 0.80500001 18
6.6389999 0.14300001 0.96100003 17
7.1279998 0.163 1.145 15
7.7249999 0.186 1.364 16
8.3620005 0.213 1.6109999 15
5.8800001 0.16 0.66799998 18
6.2350001 0.178 0.80500001 18
6.6329999 0.198 0.95999998 18
7.1209998 0.222 1.1440001 16
7.7259998 0.25099999 1.365 16
8.3500004 0.28200001 1.609 14
5.8790002 0.20999999 0.66799998 17
6.23 0.23 0.80500001 17
6.631 0.25299999 0.96100003 17
7.1269999 0.28099999 1.146 17
7.7259998 0.315 1.365 14
8.3520002 0.352 1.61 14
5.8769999 0.25799999 0.66799998 18
6.2350001 0.28200001 0.80599999 17
6.6599998 0.31 0.96499997 15
7.1300001 0.34099999 1.146 15
7.7210002 0.37900001 1.365 15
8.349 0.421 1.6109999 14
5.8660002 0.30700001 0.667 19
6.2360001 0.33399999 0.80599999 19
6.6220002 0.36300001 0.95999998 19
7.1199999 0.39899999 1.145 16
7.7160001 0.44299999 1.365 16
8.3409996 0.49000001 1.61 15
5.8670001 0.35600001 0.66799998 19
6.2179999 0.38499999 0.80400002 19
6.6129999 0.417 0.95999998 19
7.1209998 0.45899999 1.146 17
7.7069998 0.50599998 1.364 16
8.3430004 0.55900002 1.6109999 15
5.862 0.40400001 0.667 19
6.2199998 0.43599999 0.80500001 19
6.645 0.47400001 0.96499997 16
7.1100001 0.51599997 1.145 16
7.6950002 0.56900001 1.363 16
8.3339996 0.62699997 1.6109999 16
5.8569999 0.45199999 0.667 20
6.2150002 0.48699999 0.80500001 19
6.612 0.52600002 0.95999998 17
7.112 0.574 1.146 16
7.6950002 0.63099998 1.364 16
8.3319998 0.69499999 1.6109999 15
5.8429999 0.498 0.66600001 21
6.2049999 0.537 0.80400002 17
6.619 0.57999998 0.96200001 17
7.1149998 0.63300002 1.147 16
7.6890001 0.69400001 1.363 15
8.3280001 0.76200002 1.6109999 16
0 6.1440001 0 0
0 0 0 0
0 0 0 0
0 0 0 255
5.848 0.54699999 0.667 18
6.2010002 0.58700001 0.80400002 18
6.6329999 0.63599998 0.96499997 16
7.105 0.69 1.147 17
7.6859999 0.75599998 1.364 16
8.3280001 0.83099997 1.613 15
5.8460002 0.59399998 0.667 19
6.2059999 0.63800001 0.80500001 19
6.6020002 0.68599999 0.96100003 18
7.098 0.74699998 1.146 17
7.6960001 0.81900001 1.367 16
8.3290005 0.898 1.614 14
5.8429999 0.64099997 0.667 19
6.1950002 0.68699998 0.80500001 18
6.631 0.74299997 0.96600002 16
7.0970001 0.80500001 1.147 17
7.691 0.88200003 1.367 16
8.323 0.96499997 1.614 14
5.8439999 0.68900001 0.66799998 19
6.2010002 0.73699999 0.80599999 19
6.6209998 0.796 0.96499997 15
7.092 0.861 1.147 16
7.6919999 0.94400001 1.368 16
8.3260002 1.0319999 1.6160001 13
5.8379998 0.73500001 0.66799998 18
6.2010002 0.787 0.80699998 18
6.6279998 0.84899998 0.96700001 16
7.0929999 0.91799998 1.148 16
7.6919999 1.005 1.37 16
8.3240004 1.099 1.617 13
5.8309999 0.77999997 0.667 19
6.1939998 0.83600003 0.80699998 17
6.625 0.90200001 0.96799999 16
7.0960002 0.97500002 1.15 16
7.6849999 1.0650001 1.37 16
8.3260002 1.165 1.62 13
5.8319998 0.82700002 0.66799998 17
6.198 0.88599998 0.80800003 19
6.6199999 0.954 0.96799999 16
7.098 1.031 1.152 16
7.6939998 1.128 1.373 14
8.3319998 1.232 1.623 13
5.8309999 0.87300003 0.66900003 18
6.1890001 0.93300003 0.80800003 17
6.6230001 1.007 0.97000003 16
7.1020002 1.0880001 1.154 16
7.6929998 1.189 1.375 14
8.3369999 1.299 1.626 11
5.8309999 0.91900003 0.67000002 17
6.1960001 0.98299998 0.81 18
6.5929999 1.054 0.96700001 19
7.1100001 1.145 1.1569999 16
7.7020001 1.25 1.378 14
8.3409996 1.365 1.6289999 12
5.8270001 0.96399999 0.671 18
6.1999998 1.033 0.81099999 18
6.618 1.11 0.972 16
7.0999999 1.199 1.1569999 17
7.7020001 1.311 1.38 15
8.3459997 1.432 1.632 12
5.8280001 1.01 0.67199999 19
6.1890001 1.08 0.81099999 17
6.6230001 1.1619999 0.97399998 16
7.098 1.255 1.158 16
7.7049999 1.372 1.383 15
8.3520002 1.499 1.636 11
5.8319998 1.057 0.67299998 17
6.1900001 1.128 0.81300002 17
6.5929999 1.209 0.97100002 18
7.105 1.311 1.161 15
7.7150002 1.434 1.387 14
8.349 1.562 1.638 12
5.8379998 1.102 0.67500001 18
6.1919999 1.176 0.815 19
6.625 1.266 0.97799999 17
7.1079998 1.367 1.164 16
7.7179999 1.494 1.39 14
8.3590002 1.6289999 1.643 12
5.8439999 1.149 0.67699999 18
6.1919999 1.224 0.81599998 19
6.599 1.311 0.97600001 19
7.1079998 1.421 1.166 17
7.7280002 1.554 1.3940001 15
8.3830004 1.698 1.651 13
5.8390002 1.192 0.67799997 20
6.1989999 1.272 0.81900001 21
6.6300001 1.368 0.98199999 18
7.1170001 1.477 1.17 17
7.7360001 1.6160001 1.399 14
8.3900003 1.7640001 1.656 13
5.8390002 1.2359999 0.68000001 17
0 0 0 0
6.6259999 1.4170001 0.98400003 18
7.1240001 1.5319999 1.174 17
7.7550001 1.678 1.405 15
8.3979998 1.829 1.661 13
0 6.1440001 0 0
0 0 0 0
0 0 0 0
0 0 0 255
5.8470001 1.2819999 0.68300003 18
6.2020001 1.3660001 0.82300001 18
6.6420002 1.47 0.98900002 18
7.1269999 1.586 1.177 15
7.756 1.737 1.409 14
8.4119997 1.896 1.668 12
5.842 1.325 0.68400002 19
6.2049999 1.413 0.82599998 19
6.6350002 1.5190001 0.991 17
7.1409998 1.643 1.183 16
7.7670002 1.7970001 1.414 15
8.4309998 1.9630001 1.676 12
5.849 1.37 0.68699998 18
6.2210002 1.4630001 0.83099997 20
6.6430001 1.5700001 0.995 17
7.1539998 1.7 1.188 17
7.789 1.8609999 1.4220001 14
8.4449997 2.029 1.683 13
5.8569999 1.415 0.69099998 18
6.2160001 1.508 0.833 19
6.651 1.6210001 0.99900001 16
7.1669998 1.755 1.194 15
7.803 1.9220001 1.429 13
8.4519997 2.0929999 1.689 12
5.8660002 1.46 0.69400001 17
6.2309999 1.557 0.838 19
6.665 1.6720001 1.0039999 16
7.177 1.8099999 1.199 16
7.8130002 1.98 1.4349999 15
8.4630003 2.1570001 1.696 12
5.8709998 1.503 0.69700003 18
6.2490001 1.6059999 0.84299999 17
6.6690001 1.722 1.0089999 16
7.1880002 1.864 1.205 16
7.8280001 2.0409999 1.443 14
8.4809999 2.224 1.705 11
5.8779998 1.5470001 0.70099998 18
6.2449999 1.65 0.84600002 19
6.6859999 1.774 1.015 16
7.2129998 1.9220001 1.2130001 14
7.849 2.102 1.451 13
8.5100002 2.2920001 1.717 12
5.888 1.591 0.70599997 19
6.2470002 1.694 0.85000002 20
6.7010002 1.824 1.021 16
7.2199998 1.974 1.219 15
7.8649998 2.1619999 1.46 13
8.5200005 2.355 1.724 12
5.8959999 1.6339999 0.70999998 18
6.2779999 1.7460001 0.85799998 16
6.7210002 1.877 1.028 17
7.243 2.0320001 1.228 14
7.8920002 2.2249999 1.47 13
8.5469999 2.4230001 1.737 12
5.9060001 1.678 0.71399999 18
6.283 1.791 0.86199999 16
6.7270002 1.925 1.034 16
7.2670002 2.089 1.237 15
7.9029999 2.283 1.478 13
8.5819998 2.4920001 1.75 12
5.9109998 1.72 0.71899998 18
6.296 1.8380001 0.86799997 16
6.7340002 1.973 1.04 16
7.2930002 2.1459999 1.247 15
7.9250002 2.3440001 1.488 13
8.6149998 2.5610001 1.7640001 12
5.9159999 1.761 0.72299999 17
6.3060002 1.883 0.87400001 16
6.7550001 2.0250001 1.048 17
7.3080001 2.2 1.255 14
7.948 2.404 1.499 12
8.6359997 2.625 1.776 12
5.947 1.809 0.73100001 19
6.322 1.9299999 0.88099998 16
6.7740002 2.075 1.056 16
7.3270001 2.2539999 1.265 14
7.9720001 2.464 1.51 12
8.6709995 2.6930001 1.791 12
5.9439998 1.847 0.73500001 17
6.336 1.975 0.88800001 16
6.7930002 2.125 1.064 15
7.3590002 2.312 1.276 15
7.9980001 2.5239999 1.522 13
8.7299995 2.7690001 1.811 15
5.9790001 1.896 0.745 18
6.3610001 2.023 0.89600003 16
6.8049998 2.1719999 1.072 15
7.3699999 2.362 1.284 13
8.0220003 2.5829999 1.534 13
8.7799997 2.8410001 1.83 28
5.9829998 1.934 0.75 14
6.3779998 2.0680001 0.90399998 16
6.8340001 2.224 1.0829999 17
7.408 2.421 1.298 14
8.0509996 2.642 1.5470001 14
8.7749996 2.895 1.837 42
0 6.1440001 0 0
0 0 0 0
0 0 0 0
0 0 0 255
6.0009999 1.977 0.75700003 19
6.4000001 2.1140001 0.91299999 16
6.8590002 2.2739999 1.0930001 17
7.4289999 2.473 1.309 14
8.0889997 2.7049999 1.563 14
8.7609997 2.9449999 1.844 33
6.013 2.017 0.764 15
6.4180002 2.1589999 0.92199999 17
6.8899999 2.326 1.105 17
7.4559999 2.527 1.321 15
8.1210003 2.7639999 1.577 14
8.8079996 3.0139999 1.863 20
6.0349998 2.059 0.77200001 15
6.4380002 2.2030001 0.93099999 16
6.9190001 2.3759999 1.1160001 16
7.4860001 2.5810001 1.334 13
8.1610003 2.8269999 1.594 14
8.9370003 3.1110001 1.9 16
6.053 2.0999999 0.77999997 16
6.4650002 2.25 0.94099998 17
6.9499998 2.427 1.128 15
7.52 2.6359999 1.348 14
8.2089996 2.8900001 1.612 14
9.0010004 3.1849999 1.924 28
6.0710001 2.1400001 0.78899997 15
6.487 2.2939999 0.95099998 16
6.98 2.4760001 1.14 14
7.5419998 2.687 1.36 14
8.2729998 2.96 1.6339999 17
9.0100002 3.2390001 1.936 34
6.092 2.181 0.79799998 16
6.5159998 2.339 0.96200001 16
7.0170002 2.5280001 1.154 13
7.5830002 2.7420001 1.376 14
8.3360004 3.0280001 1.6569999 30
9.0209999 3.293 1.95 32
6.1170001 2.221 0.80699998 16
6.539 2.381 0.972 16
7.053 2.5769999 1.168 13
7.6160002 2.7939999 1.391 14
8.3380003 3.072 1.6670001 43
9.0699997 3.359 1.972 20
6.1269999 2.256 0.815 15
6.5669999 2.425 0.98400003 17
7.0900002 2.6270001 1.182 14
7.6479998 2.845 1.406 14
8.3319998 3.1129999 1.676 38
9.1680002 3.4430001 2.0039999 14
6.164 2.3 0.82700002 15
6.5999999 2.47 0.99599999 15
7.118 2.6730001 1.1950001 13
7.6890001 2.898 1.423 15
8.3839998 3.174 1.697 26
9.2440004 3.517 2.033 13
6.1890001 2.3380001 0.83700001 15
6.6259999 2.51 1.008 15
7.1539998 2.72 1.209 13
7.7360001 2.9530001 1.441 14
8.4490004 3.2390001 1.72 16
9.3210001 3.5910001 2.062 13
6.2090001 2.3740001 0.847 15
6.6560001 2.552 1.02 15
7.1830001 2.7639999 1.223 13
7.777 3.0039999 1.4579999 13
8.5769997 3.3280001 1.757 19
9.3929996 3.6619999 2.0899999 13
6.2350001 2.4100001 0.85799998 15
6.6929998 2.595 1.034 14
7.2160001 2.8080001 1.238 14
7.8179998 3.0539999 1.476 14
8.6190004 3.382 1.777 32
9.4560003 3.7290001 2.1170001 13
6.2690001 2.4489999 0.87 15
6.7340002 2.6389999 1.049 14
7.2509999 2.8510001 1.253 14
7.888 3.1140001 1.499 17
8.599 3.4100001 1.785 38
9.5430002 3.8039999 2.1500001 13
6.2979999 2.4860001 0.88200003 14
6.7709999 2.6800001 1.062 15
7.2930002 2.8959999 1.2690001 13
